"x" "y" "z"
0.56649112 -0.17008002 0.72943128
-0.83130265 -0.41209205 0.571548589999992
-0.62238789 0.18542973 0.69200146999998
-0.24491692 0.0959111899999998 0.693313719999992
-0.25295688 0.0448571900000001 0.670974860000001
0.00295637999999987 -0.268430550000001 0.653320439999987
0.22691154 0.0763704000000001 0.713104369999996
0.24547767 0.0914155699999997 0.731979499999994
0.26962899 0.0706254699999995 0.710647709999989
0.24984454 0.0429021499999998 0.725479250000006
0.22881555 -0.38402923 0.651397829999979
0.59392261 -0.1727217 0.721756110000001
0.72093772 -0.0301836300000007 0.752365239999989
1.23830604 0.7505304 0.909210329999979
-0.26118852 0.0224591900000002 0.68153393999998
0.02787589 0.0609380399999999 0.691360599999996
0.04523276 0.0516740499999999 0.691375859999994
0.04949903 0.0493985800000001 0.691345339999998
0.20993995 0.0876752600000001 0.713394289999997
0.25145005 0.0460244799999998 0.720977909999988
0.27556848 0.0714389500000001 0.721435670000005
0.30741214 0.0660764399999998 0.713012819999989
0.33477258 0.0630075199999993 0.714813359999994
-0.81954575 -0.41438277 0.571609620000004
-0.25195456 0.11754815 0.671737799999988
-0.25034715 0.108686609999999 0.68515026999998
-0.23680116 0.10404984 0.675552490000001
-0.25387002 0.0566960999999999 0.68219006999999
0.2062683 0.103218239999999 0.71012890999998
0.24681186 0.0591336899999995 0.712326179999991
0.25172805 0.05758492 0.717605719999995
0.28510617 0.0673562699999994 0.711395390000007
0.20947026 -0.36334403 0.652465949999993
0.21242856 -0.367429570000001 0.652145509999997
1.24215507 0.686403439999999 0.882202269999993
1.64086341 0.90717713 0.956039549999986
-0.27028752 0.12395207 0.686157350000002
-0.22876645 0.0979854299999996 0.680023320000004
0.21223258 0.777423069999999 0.803894170000007
-0.0528955500000001 -0.281323270000001 0.633819709999983
-0.0689878500000001 -0.34840758 0.632400639999986
0.29400777 -0.44821723 0.648681769999996
1.24918555 0.7432491 0.889984260000006
1.25001525 0.69817082 0.878051879999987
-0.75818253 -0.43462356 0.571121339999991
-0.23442174 0.11040608 0.671753059999986
-0.21877576 0.111589589999999 0.672729619999984
0.0538377699999999 0.0471927299999999 0.691314820000002
-0.05083371 -0.33069595 0.618423589999992
0.0160021699999999 -0.25226958 0.63377392999999
0.20729207 0.0817796399999997 0.692215089999991
0.225955 0.0739118300000001 0.692505009999991
0.25201224 0.0694781999999998 0.709106569999989
0.20814418 -0.36582263 0.647476319999981
0.22974872 -0.3825167 0.647079590000004
0.25856351 -0.394898250000001 0.648025639999986
0.47378062 -0.16398605 0.69192516999999
0.56480884 -0.17362197 0.703827029999985
1.24225806 0.697632 0.870819219999987
0.02903985 0.0631848999999995 0.672058230000005
0.04631805 0.0535642300000001 0.671966679999997
0.05852222 0.0447656299999997 0.671600469999987
0.28634929 0.0692426399999997 0.691497929999997
0.29192351 0.0693875999999998 0.707153449999993
0.31942367 0.0777398799999993 0.705291869999996
0.32001876 0.0676986399999997 0.709152349999982
0.70933532 -0.0399158800000006 0.713363770000001
-0.82270623 -0.41100486 0.559967169999993
-0.81179381 -0.39995082 0.553833129999987
0.0560355100000001 0.0513927199999999 0.672317629999981
0.47877835 -0.137069540000001 0.680862550000001
0.47483062 -0.15278037 0.688446169999992
0.48542689 -0.14448722 0.690414549999986
0.71417808 -0.0417679099999999 0.713562139999993
1.29515647 0.71980302 0.872192509999991
1.34457015 0.72453992 0.871032839999998
1.36745071 0.72396676 0.873184329999987
1.37715243 0.72693078 0.880996829999987
-0.55164147 0.1860048 0.651687749999979
-0.25084973 0.12059895 0.667358519999993
-0.23280907 0.11420171 0.652847420000001
-0.23907853 0.0831357700000002 0.662780889999993
-0.21659709 0.10333554 0.662033210000004
-0.0384616900000001 -0.18382819 0.63900769
0.50538634 -0.13053878 0.678985719999986
0.51139592 -0.130109630000001 0.674575930000003
1.22922324 0.700243159999999 0.85083019999999
1.30396842 0.72162835 0.86682141999998
1.3200283 0.7221338 0.862030159999989
1.60677146 0.89357964 0.916671879999996
-0.23038722 0.10689561 0.656829959999982
0.20985078 0.740142029999999 0.775344969999992
0.21718787 0.72746865 0.774047980000006
0.00581072999999988 -0.26360877 0.613311890000006
0.01656579 -0.25135883 0.624771240000001
0.18950843 0.0905820500000001 0.676880009999991
0.20772123 0.0820628799999996 0.672104009999998
0.22145175 0.0869466499999998 0.673751960000004
0.53283405 -0.1325415 0.681106689999979
1.34436893 0.72407929 0.864547859999988
0.70868873 -0.33850463 0.672622810000007
1.00186156 -0.62674697 0.671020629999987
-0.76846934 -0.409540020000001 0.55822766999998
-0.22801114 0.0855447499999995 0.654144409999986
-0.21236754 0.11486165 0.654129149999989
0.2059617 0.71446435 0.754287849999997
0.0229234599999999 0.0732785900000001 0.653289919999992
0.0297584499999999 0.0641538299999995 0.652572759999998
0.0428609799999999 0.0575963699999997 0.652481209999991
0.05741452 0.0538522399999994 0.653030519999987
0.0589609099999999 0.0452882499999996 0.656875740000004
-0.0158209899999999 -0.288001850000001 0.613083009999997
0.2670288 0.0872022299999999 0.687194949999991
0.2729063 0.0875169499999995 0.677551399999999
0.28091239 0.0695955000000001 0.686004760000003
0.70946025 -0.0490873600000006 0.707046629999979
0.98991775 -0.59657939 0.67283642999999
1.00274467 -0.632713160000001 0.670486579999988
-0.55437995 0.1756231 0.645324829999993
-0.53843356 0.17782227 0.64151013999998
-0.0518627200000001 -0.29083617 0.601287969999987
-0.03688432 -0.31179984 0.608581670000007
0.27450895 0.0906421399999999 0.673004279999986
0.18854331 -0.33696254 0.613098269999995
0.69429969 -0.325458370000001 0.658142220000002
0.96470164 -0.59668906 0.665268069999996
0.98179626 -0.5917538 0.652969490000004
-0.7931552 -0.39233764 0.531326419999999
-0.77722216 -0.39548667 0.53146375
-0.22324468 0.11189668 0.633682379999982
0.20944404 0.708097619999999 0.753677490000001
0.21397447 0.70440308 0.75346386999999
-0.01846791 -0.283645470000001 0.591018800000001
0.18832492 0.0879594499999996 0.671478399999984
0.16197013 -0.329515300000001 0.611969119999998
0.16581725 -0.33177932 0.612030159999989
0.50556754 -0.11206706 0.651260500000006
0.71158885 -0.32618125 0.664596679999988
0.2025299 0.69077126 0.733810549999987
0.18662547 0.0838033399999993 0.650695929999983
0.21160363 0.0896293300000002 0.663192879999997
-0.07017041 -0.64545806 0.550949220000007
0.64127444 -0.0621813100000006 0.673599370000005
0.69415282 -0.0640543300000003 0.688354619999984
0.62243842 -0.24819644 0.650467039999995
0.77219581 -0.07630523 0.69390881999999
0.86565684 -0.51997932 0.653366210000002
0.87526893 -0.51557143 0.654754760000003
-0.52097417 0.18640248 0.633804449999985
-0.62015344 -0.520232040000001 0.533447389999992
0.21794891 0.6833841 0.733764769999993
0.0237164400000001 0.0743266799999995 0.633712889999998
0.0268010999999999 0.06894986 0.633300910000003
0.0493106800000001 0.0592481299999994 0.633453500000002
0.0529174699999999 0.06755654 0.639663819999981
0.14783954 -0.30802043 0.590713629999982
0.14558458 -0.312066870000001 0.594604619999984
0.1598196 -0.31445487 0.595413329999985
0.18600034 -0.33256324 0.608917359999992
0.19095229 -0.33265193 0.609283570000002
0.46809196 -0.0983560900000002 0.654831059999992
0.62313794 -0.22877391 0.657745489999996
0.63640975 -0.24485191 0.652160769999995
0.66898774 -0.24013503 0.660568359999985
0.6749916 -0.24032386 0.661056639999998
0.65587091 -0.28618129 0.654144409999986
0.86855125 -0.5083979 0.650024540000004
-0.61785413 -0.513183430000001 0.526657229999984
-0.20886279 0.109490559999999 0.634109620000004
0.20587444 0.68412034 0.733108649999991
-0.07602168 -0.611734230000001 0.542419559999985
-0.0704565100000001 -0.63705428 0.547882209999983
0.12992047 -0.30265029 0.590133789999982
0.17091083 -0.322561100000001 0.599838379999994
-0.04378796 -0.79265578 0.530853399999984
0.22765969 -0.32218154 0.604232909999979
0.23135471 -0.32490428 0.608795289999989
0.61150026 -0.0719736400000004 0.664749269999987
0.62409066 -0.254385790000001 0.649932989999996
0.64381742 -0.26913341 0.650024540000004
0.63485383 -0.26499732 0.649673589999992
0.64532231 -0.27575191 0.64939892999999
0.65680598 -0.28481467 0.649429449999985
1.5528469 0.863059199999999 0.860534790000003
0.94969844 -0.57024749 0.64218151999998
0.20283317 0.691499869999999 0.728103759999982
0.20168065 0.6734554 0.714416629999988
0.6646285 -0.317239600000001 0.636688359999994
1.54257678 0.85994737 0.852508669999992
-0.95801783 -0.37261756 0.528503540000003
-0.7696209 -0.38147338 0.533676270000001
0.20606517 0.65404908 0.712219360000006
0.0664586899999999 0.0734607399999998 0.63140881999999
-0.017056 -0.27042564 0.57473766999999
0.00895022999999995 -0.257936320000001 0.573379639999985
0.18970346 0.0896970399999999 0.631500369999998
-0.07965852 -0.60072406 0.539383060000006
0.10795402 -0.2946852 0.59396375
-0.04000855 -0.76942809 0.526062139999993
-0.05200673 -0.807973700000001 0.520553710000002
0.51930236 -0.0987699800000001 0.648971679999988
1.15772628 0.66868989 0.790359620000004
1.51497363 0.87934033 0.845382819999998
0.86989021 -0.51528533 0.630096559999998
0.91688441 -0.5264128 0.638397339999983
-0.77604104 -0.391309580000001 0.524063240000004
0.02774619 0.0705663400000001 0.613784920000001
0.02744674 0.0699807799999999 0.618682989999996
0.04965591 0.0594598499999996 0.613861209999982
0.0638565899999999 0.0549365699999997 0.614212159999994
0.15741157 -0.30976756 0.591262939999979
1.1848297 0.66456143 0.773452879999979
1.50469112 0.864269419999999 0.83615125
1.5262432 0.8601772 0.837585579999995
0.8906393 -0.51264175 0.632324339999997
0.90885066 -0.54412826 0.631027349999982
-0.79303361 -0.39212211 0.523300299999988
-0.48050404 0.1853048 0.611160399999989
0.10809421 -0.285018760000001 0.572387819999989
0.12696551 -0.28863223 0.573288090000005
0.1297903 -0.293190800000001 0.577530029999991
0.13021564 -0.29260047 0.573059209999997
1.10500335 0.654264609999999 0.771835449999998
1.20548438 0.662111439999999 0.774871950000005
1.20452308 0.67216412 0.782165649999996
-0.86828328 -0.37593253 0.510650760000004
-0.75728227 -0.38362106 0.51356518999998
-0.45922709 0.18935029 0.602951179999991
-0.21405364 0.10860841 0.604629639999985
0.19878911 0.6215059 0.690750249999979
0.21767854 0.62274186 0.697677739999989
-0.0103540500000001 -0.26697333 0.571029789999983
-0.0863280399999999 -0.57671531 0.533493169999986
0.44554376 -0.0794733299999999 0.630279669999993
1.50930213 0.870672389999999 0.823883179999996
-0.92018033 -0.368873440000001 0.513992439999981
-0.91645814 -0.370143730000001 0.51393139999999
-0.88755322 -0.36974509 0.510849119999989
0.19877052 0.591766519999999 0.675964480000005
-0.0262694400000001 -0.2583731 0.55291760999998
-0.0857439099999999 -0.57555087 0.52963269
0.44976567 -0.0922535199999999 0.61424267999999
1.20585727 0.66249101 0.768753180000004
1.2140026 0.663396039999999 0.769470339999998
1.50975036 0.84703461 0.814666869999996
0.80852889 -0.49100097 0.612136969999995
-0.91504336 -0.384856060000001 0.508072029999994
-0.61548901 -0.49292262 0.49765026999998
0.17566346 0.63861672 0.674591190000001
0.0176496399999999 0.0836917599999998 0.590133789999982
0.0455965899999999 0.0619565699999995 0.594284179999988
0.06567287 0.0582668000000002 0.590088019999996
-0.03163052 -0.28091605 0.550003180000004
0.00750969999999995 -0.26189502 0.550216799999987
0.02521514 -0.59748347 0.530624520000003
1.10184478 0.64873902 0.752334719999993
1.52630805 0.84760587 0.809463629999982
1.54312324 0.83616273 0.809784059999998
1.56821059 0.83675019 0.812027099999995
0.7986164 -0.4719723 0.603561529999979
0.84487724 -0.50022491 0.609817629999981
-0.8911872 -0.36722835 0.506988649999982
-0.88710118 -0.36759742 0.507141239999982
-0.75987769 -0.3771189 0.50619519
0.16573142 0.64433591 0.674698000000006
0.19245958 0.5478708 0.670395020000001
-0.05106068 -0.25818618 0.560485970000002
-0.0284958 -0.28452476 0.558761720000007
0.01796292 -0.25041183 0.552169929999991
0.0774245199999999 -0.26423915 0.554397709999989
0.0887317599999999 -0.27274402 0.563324099999988
0.10998534 -0.28143676 0.563766609999988
0.11184453 -0.28812583 0.563171509999989
0.00734327999999995 -0.56891807 0.528473029999986
0.00473641999999996 -0.58300765 0.518325930000003
1.09262275 0.645263829999999 0.745010500000006
0.78040694 -0.47191604 0.601822029999994
0.8349781 -0.489025910000001 0.605194219999987
0.86835479 -0.5178345 0.605484129999979
-0.73572636 -0.38266357 0.490081909999986
-0.20765401 0.11141984 0.590698369999984
0.14992713 0.65023152 0.67445386
0.45629453 -0.0906523100000003 0.609909179999988
1.06583881 0.63668076 0.735778929999981
-0.6124487 -0.48291953 0.490997440000001
-0.19279576 0.1092302 0.571823249999994
0.16083907 0.64701669 0.669036989999995
0.18878411 0.538938679999999 0.658111700000006
-0.18246461 0.10959451 0.572357299999993
0.02109384 0.0789510399999998 0.570205810000004
0.0461740399999999 0.0627919800000001 0.574768189999986
0.0661721099999999 0.0588952699999998 0.570572029999994
0.70704078 0.5614845 0.688675050000001
0.99886798 0.585291069999999 0.712951790000005
1.02736282 0.6201574 0.712692390000001
0.88872146 -0.531415780000001 0.591644409999986
-0.37388945 0.17222611 0.570663580000002
0.00789737000000001 -0.25062926 0.533325319999989
0.01579475 -0.25552924 0.533294799999993
0.02968215 -0.24713309 0.54872143999998
-0.0857448700000001 -0.528385 0.510040409999988
-0.08249236 -0.53171619 0.505737429999982
0.05707263 -0.2542971 0.531433230000005
0.98812007 0.59012048 0.694442879999997
0.98702716 0.58862607 0.700256469999999
0.99298476 0.58698766 0.706649909999982
1.01420306 0.609601179999999 0.69236767999999
1.06958579 0.65339295 0.719436769999987
0.5868144 -0.35606464 0.577575809999985
0.59231757 -0.356559590000001 0.573257569999981
0.72093105 -0.41608508 0.578079349999996
0.88806628 -0.524642780000001 0.587387210000003
0.88936519 -0.5308493 0.582061890000006
-0.61101342 -0.45156749 0.478805669999986
0.03123283 0.20588509 0.594940309999998
0.41279172 -0.0693758300000002 0.574249390000006
0.44027852 -0.0807779599999998 0.570022709999989
0.91784858 0.57737176 0.693863039999997
1.0356655 0.62179772 0.707382330000002
0.59871339 -0.33853324 0.570800910000003
-0.60737134 -0.45303519 0.478759889999992
-0.47386266 -0.204294040000001 0.513168460000003
-0.19258118 0.10951535 0.562225469999987
-0.1718731 0.10967271 0.553527959999997
-0.17134858 0.111402669999999 0.558624390000006
0.0425391099999999 0.205550349999999 0.570190559999986
-0.01681329 -0.24957832 0.531997810000007
0.41312408 -0.0279863699999998 0.588546879999996
0.60019063 -0.327808220000001 0.571945319999998
0.70764732 -0.39300712 0.5744325
0.90236568 -0.5534323 0.576370370000006
-0.73251725 -0.38691219 0.477554449999985
-0.71209241 -0.35792525 0.473495609999986
0.0285654 0.0706073499999995 0.550079469999986
0.04660033 0.0628224999999993 0.550277840000007
0.0615210500000001 0.0601235999999998 0.550827150000003
-0.07987882 -0.50699027 0.500290039999982
0.39208507 -0.0459497799999999 0.570297369999992
0.40098809 -0.0502928100000002 0.570449959999991
0.97919368 0.58641259 0.675369389999986
0.60583066 -0.32800468 0.567520269999989
0.62654304 -0.315006100000001 0.555923589999992
0.70371818 -0.3570145 0.572692999999987
0.91291236 -0.55586036 0.57223522999999
-0.61287309 -0.443693000000001 0.475631840000005
-0.60774184 -0.44091781 0.472046019999993
-0.47528172 -0.2095917 0.490707520000001
-0.33570577 0.16510789 0.552124149999997
-0.15021659 -0.1569136 0.52085889
0.00509738000000004 -0.2466944 0.510955940000002
0.00307845000000007 -0.250352700000001 0.528579839999992
0.02037238 -0.24670776 0.511901980000005
0.02304887 -0.2511185 0.516052369999983
0.94711875 0.56824414 0.677139409999995
0.62758922 -0.30465301 0.552154669999993
0.68638896 -0.37323268 0.560073979999999
0.92807197 -0.55307563 0.559448369999984
-0.69324733 -0.3518122 0.470703249999985
0.04399299 -0.25010856 0.517425659999986
0.05373429 -0.25079806 0.527099739999983
0.40982532 -0.0651472399999999 0.554672369999992
0.60130643 -0.27377875 0.562759529999994
0.69344806 -0.34611877 0.563171509999989
-0.47631169 -0.21257957 0.494720580000006
-0.17301417 0.10609643 0.533706789999997
0.04306268 0.206774869999999 0.565292479999982
0.0461087099999999 -0.24579795 0.513443120000005
0.39046954 -0.0493410399999998 0.554885990000002
0.44620704 -0.1000088 0.558639650000003
0.56873368 -0.23482879 0.559219490000004
-0.71165753 -0.35662063 0.469467289999983
-0.69289161 -0.35058292 0.466812259999983
-0.15095712 -0.146591030000001 0.517364630000003
-0.1482997 -0.15238174 0.516845829999994
-0.0692820599999999 -0.466121510000001 0.488327150000003
0.38796615 -0.0432737699999999 0.555297980000006
-0.14188767 -0.14892657 0.513031130000002
0.02878045 0.0708467199999996 0.545196659999988
0.04715537 0.0514861799999995 0.53936779999998
0.05289268 0.0524398499999998 0.539764529999985
0.46948051 -0.137437660000001 0.551635869999984
0.93724441 -0.56499274 0.549575930000003
-0.59550477 -0.400987460000001 0.452636839999997
-0.27485085 0.14955918 0.533676270000001
-0.13120175 -0.14728149 0.504654060000007
0.00350187999999996 0.0373365099999994 0.53546154999998
0.0270523899999999 0.0423890799999995 0.537262089999984
0.0403814199999999 0.0485736499999998 0.538711669999998
-0.0325007500000001 -0.230131940000001 0.496917849999988
0.00675104999999987 -0.243668400000001 0.493270999999993
0.0122852199999999 -0.24264224 0.493728759999982
0.37074136 -0.0342768000000007 0.530304079999979
0.38921355 -0.0519865300000006 0.539672980000006
0.3954544 -0.0512131 0.535156379999989
0.94922637 0.54824082 0.645507939999987
0.95672607 0.54894845 0.646118290000004
0.54965114 -0.22006019 0.544555790000004
0.66587352 -0.27417358 0.548172120000004
0.6762371 -0.26765807 0.549560670000005
0.70968246 -0.39974769 0.535385259999998
0.71347999 -0.38581069 0.536941649999989
-0.27082396 0.14601342 0.523773320000004
-0.17317534 0.105117959999999 0.514236579999988
-0.15105964 0.10868279 0.510803350000003
-0.1505189 0.11061875 0.525589120000006
0.00574206999999993 0.0668088600000001 0.528885009999982
0.0205120999999999 0.05130021 0.528091560000007
1.10812377 0.487797899999999 0.633453500000002
0.7196598 -0.41067489 0.530426149999982
-0.6484933 -0.3324488 0.453827029999985
-0.59597636 -0.40277846 0.448333869999999
-0.59436799 -0.41137107 0.44752514999999
-0.46696568 -0.19805511 0.47494519
-0.46635056 -0.21037849 0.473648199999985
0.02941131 0.0711614300000001 0.511078010000006
0.04646873 0.0614854500000002 0.511001709999988
0.0616302399999999 0.05900018 0.511535769999995
0.01075172 -0.256633600000001 0.492218140000006
-0.0538931 -0.41376098 0.47317516999999
0.68510436 0.402139819999999 0.596496709999997
0.69599818 0.409994289999999 0.598007330000002
-0.67075349 -0.33434852 0.44458019999999
-0.6609335 -0.33024581 0.441192749999999
-0.64615966 -0.32402404 0.450668460000003
-0.46463919 -0.19139083 0.453827029999985
-0.21602298 0.127887889999999 0.514633299999986
-0.18650485 0.11075608 0.514190799999994
0.0260982400000001 0.152551809999999 0.528732429999991
0.00500153999999986 -0.237216790000001 0.471176270000001
0.0124235099999999 -0.24232371 0.489227419999992
0.02418327 -0.26046546 0.488113529999993
0.36888408 -0.0274465900000003 0.530853399999984
0.38035058 -0.0379236500000006 0.510666020000002
1.20979976 0.75750939 0.652221809999986
-0.63042737 -0.31518062 0.43551647999999
-0.25122739 0.143478549999999 0.509872559999991
-0.17120219 0.10957257 0.490615969999993
-0.15309144 0.1028568 0.490829590000004
-0.0218601300000001 -0.229327990000001 0.470443849999981
0.00866697999999988 -0.250495750000001 0.48364269999999
0.36918639 -0.0377119400000003 0.510009889999992
0.82579135 0.36606805 0.591201909999995
1.12323951 0.477399989999999 0.615646489999989
-0.67356683 -0.32879432 0.440933349999995
-0.62469292 -0.310305430000001 0.432067999999987
-0.5939417 -0.294509730000001 0.430465819999995
-0.05170155 -0.38927444 0.462738159999986
0.03693484 -0.23436721 0.473129400000005
0.80855846 0.381012119999999 0.585662969999987
0.81147575 0.37480084 0.585342529999991
1.3242073 0.73429791 0.65197766999998
0.8059225 -0.51310142 0.50943006
0.81460094 -0.51764472 0.509811529999979
0.8244152 -0.5368069 0.509079109999988
-0.65526915 -0.309724650000001 0.43934643999998
-0.58019543 -0.292800740000001 0.431137210000003
-0.14173127 0.10532204 0.491546760000006
0.0293192799999999 0.0703822799999996 0.491394170000007
0.04644918 0.06078355 0.491394170000007
0.06742238 0.0591775599999993 0.492309699999993
-0.03880072 -0.3826216 0.459747440000001
1.32431602 0.734134829999999 0.639175539999997
1.34014415 0.72354333 0.645767339999992
-0.0414614799999999 -0.35757621 0.453109869999992
0.36710738 -0.0316875799999998 0.495636109999992
-0.57091761 -0.27648147 0.433075079999981
-0.56487084 -0.27080329 0.4338075
-0.55349923 -0.26257499 0.430816779999986
-0.53696395 -0.25177844 0.432357909999979
-0.0354442699999999 -0.193693000000001 0.450439579999994
-0.0307064100000001 -0.21669753 0.453155640000006
-0.0165138300000001 -0.22956451 0.452636839999997
-0.0120835400000001 -0.23070605 0.452804689999994
-0.00373126000000013 -0.24545272 0.451934940000001
-0.0527200800000001 -0.412065350000001 0.447540409999988
0.36921786 -0.0279425 0.491134770000002
0.38181018 -0.0355881 0.496154910000001
-0.62515498 -0.28109916 0.430725219999999
-0.61397363 -0.3035353 0.428863649999982
-0.59828473 -0.2950228 0.426117070000004
-0.53145409 -0.248135410000001 0.432891969999986
-0.51464845 -0.23675521 0.430343749999992
-0.45158816 -0.19426521 0.432312139999993
-0.13219024 0.10217301 0.472305419999998
0.00877760999999988 0.1106321 0.494094969999992
-0.0345764200000001 -0.34308513 0.450515870000004
0.02339362 -0.23112472 0.454620489999996
-0.11357499 -0.5601662 0.426696899999996
0.3485093 -0.0244291600000004 0.49020397999999
-0.59253074 -0.28990443 0.426773199999985
-0.58710147 -0.28675063 0.427307249999984
-0.56957675 -0.272097430000001 0.429260379999988
-0.55244876 -0.25915893 0.426910529999986
-0.50877715 -0.232477980000001 0.430923589999992
-0.4915042 -0.220287160000001 0.432754639999985
-0.48040629 -0.21307643 0.433776980000005
0.02503776 0.0725194599999996 0.471893440000002
0.0469550999999999 0.0614053399999994 0.472015510000006
0.0677657 0.0595227899999999 0.472793709999991
-0.03598977 -0.33580096 0.446655399999997
-0.0177397800000001 -0.307494960000001 0.45018017999999
-0.104311 -0.5505255 0.415756349999981
-0.53637362 -0.25005706 0.428253299999994
-0.53489161 -0.24537261 0.424530159999989
-0.51407004 -0.23540195 0.421936160000001
-0.43265296 -0.178604920000001 0.430069099999997
0.00920867000000003 0.11129968 0.479507569999981
-0.0296993300000001 -0.31189712 0.444748049999987
-0.0311060000000001 -0.315009910000001 0.439956789999997
0.0242647999999999 -0.22939475 0.450195439999987
-0.10042001 -0.54256042 0.412552009999985
0.3438692 -0.431001500000001 0.451294069999989
-0.50380946 -0.230948290000001 0.422668579999993
-0.49040509 -0.217037990000001 0.424438600000002
-0.48069287 -0.21458228 0.420669680000003
-0.4264741 -0.173637230000001 0.430725219999999
-0.40166999 -0.154588540000001 0.433410769999995
-0.3703642 -0.131597360000001 0.43219006999999
-0.35150338 -0.11760505 0.434249999999992
-0.3326769 -0.104705650000001 0.431625489999988
0.0290679899999999 0.0693284699999994 0.471771369999999
-0.00797511000000006 -0.233147460000001 0.439254890000001
-0.0230326700000001 -0.29810317 0.432937749999979
0.0130858300000001 -0.23192771 0.431350829999985
0.34604835 -0.0194280899999999 0.470764290000005
-0.43153573 -0.17513259 0.426056029999984
-0.0674581599999999 0.4305927 0.499496590000007
0.0265755599999999 -0.22504314 0.432586799999996
0.0349707500000001 -0.21819671 0.433578619999992
0.39842414 0.30863206 0.51098644999999
0.33400439 -0.42157348 0.447021609999979
0.33398008 -0.43005927 0.446289189999987
-0.42558575 -0.17093261 0.426605349999988
-0.41103268 -0.15517791 0.424209719999993
-0.40539027 -0.15223487 0.424652229999992
-0.39365578 -0.14511092 0.425674560000004
-0.11996461 0.106044929999999 0.453750740000004
0.02501821 0.0719663299999995 0.452301149999982
0.02935266 0.0693284699999994 0.452285889999985
0.0470852799999999 0.0611325899999997 0.452484260000006
0.06730842 0.0579797399999995 0.453079349999996
-0.01607037 -0.261661370000001 0.436386229999982
-0.00579644000000012 -0.2718962 0.43609631999999
-0.10034991 -0.543056330000001 0.391845829999994
-0.37971259 -0.13204654 0.422989019999989
-0.36999179 -0.13063987 0.427887089999984
-0.3655305 -0.11776527 0.420272949999998
-0.31437732 -0.0933035200000001 0.433288699999991
-0.0185113000000001 -0.277950130000001 0.425949220000007
-0.08611346 -0.50368484 0.399887210000003
0.32767152 -0.000872450000000136 0.471283080000006
0.59599399 0.36588113 0.510116699999998
0.61208533 0.37221734 0.511505249999999
-0.37214185 -0.1235884 0.419510009999982
-0.34477521 -0.112274960000001 0.425918709999991
-0.32801534 -0.0919988900000002 0.41929639
-0.30891705 -0.0915697400000006 0.424560670000005
-0.0131611899999999 -0.25589927 0.419082769999989
-0.00053835999999996 -0.25021251 0.429214599999995
0.32986926 -0.00791915000000021 0.450958380000003
0.34449195 -0.0120724000000001 0.456359989999982
0.35662078 -0.0101469300000003 0.462127809999998
0.58954667 0.36551492 0.509704720000002
0.80778407 -0.53581985 0.451034669999984
-0.46463729 -0.20771869 0.395935179999981
-0.35414649 -0.0986021300000006 0.422287109999985
-0.29682732 -0.0713461200000003 0.417633179999996
-0.27023078 -0.0516584700000005 0.415710579999995
-0.26578904 -0.0526979700000005 0.420364509999985
0.00804232999999988 -0.232305370000001 0.412994510000004
0.0132770499999999 -0.23202689 0.417785769999995
0.0278596799999999 -0.22289069 0.410095339999998
0.03529643 -0.21808036 0.410873539999983
-0.31114245 -0.0849989200000003 0.415969969999992
-0.25025321 -0.0373514500000001 0.413070799999986
0.0257334599999999 0.0730964399999996 0.432998779999991
0.0291814699999999 0.0684901899999995 0.43278515999998
0.04750823 0.0614091599999993 0.432983519999993
0.06309079 0.0600406299999996 0.433609129999979
-0.23803807 -0.0308712300000007 0.41398633
0.34667873 -0.00810989000000006 0.451873909999989
0.38843679 0.00618377999999975 0.450149659999994
0.40620231 0.00745693999999997 0.451187259999983
0.41017436 0.00434701000000004 0.451156739999988
0.26098394 -0.37035163 0.415207039999984
-0.21748162 -0.0160234800000003 0.411377079999994
-0.10774995 0.109771889999999 0.435180790000004
0.06257533 0.0468589499999998 0.437408570000002
0.32990741 0.00226322999999962 0.431961189999981
0.38242816 0.00594918 0.449752929999988
-0.46757699 -0.21688255 0.390655640000006
-0.20593596 -0.0117538800000005 0.416793949999999
-0.19212819 -0.00201209000000002 0.413406499999979
-0.01145459 -0.23075755 0.407714970000001
0.02596759 -0.21661075 0.392334109999979
0.31214999 0.0118772199999997 0.441635259999998
-0.4741664 -0.223636470000001 0.377014290000005
-0.24121667 -0.0268076200000005 0.409637579999981
-0.17785645 0.00871101999999979 0.410125859999994
-0.13952351 0.0814534799999995 0.422058230000005
0.0252742699999999 0.0714103399999999 0.413421760000006
0.02960443 0.0687753399999993 0.413406499999979
0.0476350699999999 0.0611344999999996 0.413604859999992
0.0631461099999999 0.0596887299999995 0.414123660000001
0.00967216000000004 -0.21854957 0.391525389999998
0.03333663 -0.21201499 0.393020759999985
0.3075118 0.0135976499999995 0.431686529999979
0.29344939 -0.39453395 0.406158570000002
-0.4692793 -0.222671350000001 0.377258429999983
-0.2233286 -0.0185564300000003 0.406311160000001
-0.19108106 0.000692529999999358 0.409027229999992
-0.18318702 0.00779548999999946 0.405182010000004
-0.13724089 0.0603877700000002 0.410965089999991
0.22990417 -0.35249599 0.401352049999986
-0.17400552 0.0186206499999999 0.401626709999988
-0.15975905 0.0286466299999999 0.398147709999989
0.0450096099999999 0.220146339999999 0.430221679999988
0.0447525899999999 -0.19865592 0.39445508
0.30793332 0.01387231 0.411865359999979
0.33863448 0.00794426999999942 0.427841309999991
-0.4771905 -0.23330672 0.371872069999995
-0.13709355 0.0468093600000001 0.390823490000002
0.2246952 -0.32422813 0.393951539999989
1.02267074 0.60639779 0.493194709999983
-0.48354483 -0.23946937 0.362594729999984
-0.12112237 0.0610734599999994 0.392440919999984
0.0478577499999999 0.21352021 0.419799929999982
0.0141043599999999 0.0947286299999996 0.390274169999998
0.02531909 0.0709153799999998 0.393921019999993
0.0298051799999999 0.0686952299999994 0.393905770000003
0.0478334300000001 0.0609151499999996 0.394104129999988
0.06180143 0.0559007299999994 0.394333009999997
0.00874136999999986 -0.21024116 0.373932010000004
0.01899194 -0.21023353 0.374389769999993
0.0404257699999999 -0.19760497 0.371475349999997
0.21252727 -0.327802500000001 0.38414014
1.04402351 0.60641305 0.494293339999984
1.04008865 0.6112272 0.49440014999999
-0.09437085 0.0895291999999994 0.390640379999979
0.469285 0.24268548 0.435135009999982
0.48518752 0.23869149 0.435592779999979
1.00259303 0.631082699999999 0.487625249999979
0.0341577499999999 0.207056209999999 0.408722049999994
0.00380277000000007 -0.20985587 0.373779420000005
0.30776977 0.0242787999999994 0.392791869999996
0.49375629 0.24351041 0.431076179999991
0.1918292 -0.318731150000001 0.370178350000003
0.20922422 -0.33413871 0.379028449999993
0.22813224 -0.3655947 0.373321659999988
-0.12274123 0.0697785999999994 0.378646979999985
-0.11157704 0.0847856199999999 0.370498779999991
0.02583837 -0.206788860000001 0.370330940000002
0.24323844 0.07733933 0.403396729999997
-0.0946102200000001 0.0883409199999994 0.371322759999998
-0.0928974200000001 0.0929395399999997 0.386108519999993
0.01619434 0.08634583 0.37028515999998
0.0295648499999999 0.0674993199999996 0.374389769999993
0.0479616999999999 0.0606385899999999 0.374710209999989
0.0585460600000001 0.0601789199999994 0.370163090000005
-0.0133457299999999 -0.12465652 0.37419140999998
0.00757788999999987 -0.20223983 0.351654179999997
0.0289592699999999 -0.20054229 0.352645999999993
0.23852586 0.0446359300000001 0.396041999999994
0.28728341 0.0285798699999997 0.392150999999984
0.22467708 -0.35347446 0.36947644
0.0358128499999999 -0.19686111 0.353103759999982
0.24145221 0.0504113799999999 0.391555909999994
0.19002532 -0.31277354 0.366027959999997
0.24908685 0.0538446099999996 0.377258429999983
0.28543233 0.0244409299999999 0.372070439999987
0.29299735 0.0171081199999996 0.376815919999984
0.19342755 -0.2969559 0.362640510000006
0.19832992 -0.33574088 0.351394779999993
-0.110178 0.0879651699999995 0.365890629999996
-0.0993342500000001 0.0894214299999998 0.361557129999994
0.02600717 0.07109086 0.35023511
0.02968215 0.0669786199999995 0.350128299999994
0.04815244 0.0604707399999995 0.350418219999995
0.05696868 0.0560495099999994 0.35046398999998
0.16885137 -0.29497893 0.352584960000002
0.00606058999999992 -0.19505103 0.333908210000004
0.0272836599999999 -0.193743550000001 0.330291869999996
0.03325986 -0.19215854 0.330536010000003
0.26677798 0.0438348499999996 0.372467169999993
0.14978503 -0.28143676 0.343536499999999
0.19009303 -0.32266601 0.347381719999987
0.25326204 0.0504380900000001 0.367309699999993
0.26207828 0.0457326599999996 0.367385990000002
0.27022313 0.0391370499999999 0.367340209999981
-0.0709200000000001 0.0941096999999997 0.333908210000004
0.01315402 0.0907966299999998 0.331482059999985
0.02187823 0.0735017500000001 0.330841190000001
0.0295081099999999 0.0659982399999999 0.330688600000002
0.0479073400000001 0.0592691099999998 0.330917479999982
0.0523810300000001 0.0569268899999997 0.330978520000002
0.00817441000000008 -0.19094356 0.320572029999994
0.02916812 -0.19021781 0.312255989999983
0.0455999300000001 -0.18827422 0.312988410000003
-0.08737946 0.09160725 0.313873419999993
-0.0728707399999999 0.0886375099999999 0.314193849999981
0.24941157 0.05338303 0.332748539999983
0.01065253 0.0968743999999999 0.312301759999997
0.02148437 0.0720311799999998 0.311355719999995
0.0294079700000001 0.0652286200000001 0.311309940000001
0.04764985 0.0580865599999996 0.311538819999981
0.05037212 0.0520364500000001 0.316055419999998
0.0191364199999999 -0.189744790000001 0.311920289999989
0.22716426 0.0540277199999997 0.33195508
-0.00591231000000003 -0.0864771200000005 0.311905029999991
0.0287537499999999 -0.180673440000001 0.290008669999992
0.04171466 -0.17527469 0.29061901999998
0.20614671 0.0680991799999999 0.312225469999987
0.19629287 0.0708333699999999 0.311981329999981
-0.07775737 0.0888406499999999 0.290054449999985
-0.0569882500000001 0.0880138099999996 0.290527470000001
0.18741559 0.0754701299999994 0.311920289999989
0.01031732 0.0956174499999998 0.29281628999999
0.01763391 0.0745984699999998 0.291946539999998
0.0289420999999999 0.06368844 0.291793949999999
0.04645824 0.0548564599999999 0.291916020000002
0.29214381 0.17369477 0.315063600000002
0.00946425999999989 0.10630338 0.293213019999996
0.0280475499999999 -0.17174037 0.27203381999999
0.18775701 0.0756875699999995 0.29223644999999
0.24357413 0.11013047 0.310455450000006
0.28686952 0.17500893 0.314865239999989
0.0326981499999999 -0.17285617 0.276687749999979
0.0422792400000001 -0.16346343 0.272857789999989
0.16872977 0.0711614300000001 0.30130016999999
0.2903037 0.169885799999999 0.309677249999993
-0.0725565000000001 0.0879098599999999 0.270813110000006
-0.0528850599999999 0.0847589199999996 0.271209839999983
0.00934122999999998 0.0925876299999997 0.273208740000001
0.0169448800000001 0.07255856 0.272552619999999
0.0281104999999999 0.0611001699999996 0.27240003
0.0411333999999999 0.05418126 0.272430549999996
0.22667121 0.12150018 0.290451179999991
0.26356362 0.15063111 0.292846809999986
0.18172168 0.0858356200000001 0.272781499999979
0.19393348 0.0881158499999994 0.278106820000005
0.24322271 0.14409272 0.291900760000004
-0.0403576000000001 0.0891801499999998 0.27174389999999
0.00768564999999999 -0.17129214 0.266906860000006
0.0135755499999999 -0.17003711 0.262619139999998
0.0266094100000001 -0.164338900000001 0.253997929999997
0.04171323 -0.15420135 0.250274779999984
0.1683545 0.0814439499999997 0.272216920000005
0.20599031 0.10128705 0.274109009999989
0.22554874 0.118623889999999 0.270340089999991
0.2540059 0.14197461 0.271972779999999
0.0424385 0.04517857 0.272125369999998
0.0499887399999999 -0.14733012 0.26452648999998
0.21422958 0.10698907 0.274582039999984
-0.0536589700000001 0.0823728299999997 0.251815919999984
-0.0409784399999999 0.0872213099999994 0.252365239999989
0.00823353999999998 0.10210053 0.254028449999993
0.0126571600000001 0.0744134599999997 0.253204469999986
0.0266704499999999 0.0570851999999995 0.252899299999996
0.0345396899999999 0.0507871299999998 0.25286878
0.18930816 0.0905038500000002 0.273147709999989
0.17724704 0.0880767499999999 0.267791869999996
0.20863055 0.106643839999999 0.26937878999999
0.0261197 -0.15487846 0.231460699999985
0.0324654499999999 -0.15237411 0.231735359999988
0.00835655999999996 0.0897065799999996 0.253631719999987
-0.03246785 0.0815297799999994 0.233001830000006
0.00466440999999995 0.0931140599999996 0.234253059999986
0.00793026999999991 0.0757218999999996 0.233795289999989
0.01107978 0.0703870499999999 0.238495
0.0285577699999999 0.0487958599999994 0.233398559999983
0.02992248 0.0274640699999997 0.232772949999998
0.0131130099999999 -0.15000137 0.212921269999981
-0.03138734 0.0835706399999996 0.21380628
0.00397490999999994 0.0910550799999994 0.219650389999998
0.00417040999999996 0.0789109899999998 0.214447149999984
0.0299749300000001 0.0275766099999997 0.227966429999981
-0.02430058 0.08775727 0.214080940000002
0.02424764 -0.14831336 0.213272219999993
-0.0328993900000001 0.0793611199999997 0.194412360000001
8.10000000006639e-06 0.0808068899999999 0.190277229999992
0.02196311 0.0205613799999993 0.194091920000005
0.0486097299999999 -0.12997039 0.195877199999984
0.00583219000000001 0.10735909 0.190948609999992
0.0274171699999999 -0.131267390000001 0.17239391999999
0.0325875199999999 -0.131337960000001 0.177047859999988
0.0488734200000001 -0.118672210000001 0.173004279999986
-0.00819827000000006 0.0736085599999994 0.170684940000001
-0.00687170999999998 -0.12761386 0.17179883
0.00675009999999987 -0.131524880000001 0.167389039999989
0.0226907699999999 -0.1304911 0.167709479999985
0.02539968 -0.12485679 0.154022339999983
0.04515647 -0.11596091 0.154419069999989
-0.0146222200000001 0.0709497199999998 0.165710579999995
0.0108146599999999 0.03003804 0.151184209999997
0.00965021999999993 0.00310150999999959 0.150756959999995
0.0250549199999999 -0.115097840000001 0.13104260999998
0.0370874299999999 -0.111291720000001 0.131179939999981
0.0440912199999999 -0.10777267 0.131363039999997
-0.00221348999999993 -0.0243090000000006 0.140808230000005
-0.00833560000000011 -0.10906776 0.130615359999979
-0.00962163000000005 0.0312978399999997 0.122284059999998
0.01060485 0.0164300599999994 0.127182129999994
0.00637625999999991 -0.11114581 0.116943489999983
0.0222425399999999 -0.110473470000001 0.117157109999994
0.03184699 -0.11159595 0.126495489999996
0.04929589 -0.0970342899999999 0.112945679999996
0.0289473499999999 -0.10702117 0.112640510000006
0.00553607 0.00460831000000006 0.112808349999995
0.02692508 -0.10089763 0.0940552999999795
0.0471334399999999 -0.0906179700000003 0.0942689199999904
0.05076503 -0.0941532400000007 0.103637819999989
-0.00980472999999993 0.0302163799999997 0.098373539999983
-0.0110263900000001 0.0264569899999998 0.0746003499999972
0.0317592499999999 -0.0910442700000003 0.0708619399999861
0.04578828 -0.0828340800000005 0.070877199999984
0.0265798500000001 -0.0909765500000006 0.0661774900000012
0.0419244699999999 -0.0804098400000006 0.0522004399999787
0.02886342 -0.0863045000000007 0.0522919999999942
0.0273666299999999 -0.0786989500000006 0.0334931699999856
0.0483980099999999 -0.0668123500000002 0.0334168699999964
0.00987672000000006 -0.0716627399999998 0.0193787899999904
0.0256509700000001 -0.0712927200000006 0.0147248600000012
0.03140783 -0.0702150600000007 0.0146943400000055
0.0458593299999999 -0.0617245000000004 0.0145417500000065
0.02540969 -0.0611914000000002 -0.00888048999999569
0.02660464 -0.0692308700000002 0.0100098899999921
0.0442199599999999 -0.0542219500000005 -0.00917040999999585
0.0513086199999999 -0.0503710100000001 -0.00450122000000874
0.0865754999999999 -0.00852473000000042 -0.02940356000002
0.02885436 -0.0541208600000003 -0.0278929400000152
0.0343918699999999 -0.0532320300000002 -0.0279234600000109
0.0473680400000001 -0.0478513999999999 -0.0281523400000196
0.02552127 -0.0502651500000004 -0.0420683600000018
0.0307454999999999 -0.0504740100000003 -0.046783320000003
0.04985141 -0.0429323500000001 -0.0471800500000086
0.0259642499999999 -0.0493906300000004 -0.0467528000000073
0.08109426 -0.00933631000000013 -0.0484770500000025
0.0681672 -0.02604659 -0.0478361800000187
0.02896308 -0.04343875 -0.0658568100000139
0.0460758100000001 -0.04016383 -0.0660399100000006
0.0532235999999999 -0.0362051299999999 -0.0662840500000073
0.02687453 -0.0369118000000004 -0.0896299999999997
0.0436920999999999 -0.03448852 -0.089904660000002
0.05004787 -0.0318859400000004 -0.0853575400000182
0.0641336399999999 -0.0246008199999999 -0.0858000400000094
0.0505556999999999 -0.0310858100000004 -0.0901640600000064
0.06042909 -0.0214546499999999 -0.109680050000009
0.0759301100000001 -0.0107630100000007 -0.105651730000005
0.00882433999999988 -0.0303133300000002 -0.099151489999997
0.0287799799999999 -0.0332525600000002 -0.108718750000008
0.0406408199999999 -0.0303171500000001 -0.108978150000013
0.0102901399999999 -0.0274446800000003 -0.108749259999996
0.0463991100000001 -0.0290869100000002 -0.109130730000004
0.06947803 -0.0141237600000004 -0.129226560000006
0.0294308599999999 -0.0318964300000006 -0.113525260000017
0.0355482 -0.0300396300000001 -0.113662590000018
0.0474109599999999 -0.0274027200000004 -0.128234740000011
0.07648276 -0.01016219 -0.129562250000021
0.02860402 -0.0228479699999999 -0.14710986
0.04422568 -0.0233705799999999 -0.147292960000016
0.06355237 -0.0159090300000004 -0.148086419999998
0.07070731 -0.01194556 -0.148406859999994
0.0298376 -0.0205305400000002 -0.166213859999999
0.0463399799999999 -0.0193775500000006 -0.166625850000003
0.06501388 -0.01324638 -0.167388790000018
0.0717244100000001 -0.0101936600000005 -0.158111450000007
0.11033534 0.0508596099999998 -0.167327749999998
0.0257491999999999 -0.0186003000000001 -0.18528735000001
0.04794645 -0.0164335600000003 -0.185897699999998
0.0604867899999999 -0.0120237699999999 -0.186477539999998
0.09031104 0.00657479000000016 -0.183486810000005
0.0675048700000001 -0.00818618000000004 -0.186797970000015
-0.0316963299999999 0.0700933199999998 -0.194930900000003
0.02668428 -0.0173815099999999 -0.209106320000018
0.04791211 -0.0169466300000005 -0.20968615000001
0.061347 -0.0107572899999999 -0.205642570000009
0.06872367 -0.00616820000000029 -0.206085080000008
0.08609676 0.00854507999999932 -0.207565180000017
0.05593347 -0.0115946100000004 -0.229339470000014
0.0619835799999999 -0.00994189000000034 -0.229644650000012
0.08658313 0.00889602999999983 -0.226852290000011
0.02651023 -0.01821597 -0.228088250000013
0.0494422800000001 -0.0142105400000005 -0.228988520000001
0.06771802 -0.00970061000000033 -0.248992790000017
0.0874581299999999 0.0105077399999995 -0.23666369
0.02788781 -0.0157564500000005 -0.247405880000002
0.0493354699999999 -0.0151232100000005 -0.248000970000021
0.06188678 -0.0107105600000006 -0.248657100000003
0.04916619 -0.0159614900000005 -0.266982909999996
0.0616245200000001 -0.0117634100000004 -0.267745850000011
0.0683507800000001 -0.00892051000000027 -0.268188350000003
0.0877199099999999 0.0105382599999997 -0.260772580000008
0.00928115000000007 -0.01112731 -0.285354490000003
0.0497274299999999 -0.0152510000000001 -0.286224239999996
0.06107997 -0.0138014100000001 -0.286758300000002
0.06899118 -0.00801929000000001 -0.287490719999994
0.08591079 0.00570503999999961 -0.289245480000005
0.02801465 -0.0173366800000005 -0.309295530000014
0.0488805699999999 -0.0179613400000003 -0.309890620000004
0.06165504 -0.0129497800000005 -0.306045409999996
0.06903981 -0.00849612000000022 -0.306686280000008
0.0873670499999999 0.00823514000000003 -0.308837760000017
0.0613203 -0.0144518200000006 -0.329849120000006
0.0687098399999999 -0.00976451000000012 -0.325759760000011
0.0855536399999999 0.00375572999999996 -0.327743400000003
0.00950955999999992 -0.0119322100000003 -0.32827746000001
0.04907846 -0.0181673400000006 -0.329009880000001
0.06794357 -0.0121134100000004 -0.349578730000019
0.08568715 0.00347534999999954 -0.347015249999998
0.0274543700000001 -0.0196359900000003 -0.347289910000001
0.04972266 -0.0172518100000003 -0.348296989999994
0.0754327699999999 -0.00837310000000002 -0.36947619
0.0480565900000001 -0.0214537000000004 -0.366989009999998
0.0686616799999999 -0.0112703600000001 -0.36895739000002
0.0842313699999999 -0.000943980000000622 -0.385238520000001
-0.00944137999999994 -0.00870212000000059 -0.385299560000021
0.0256743399999999 -0.0251253400000007 -0.389678830000008
0.04854917 -0.02109893 -0.386276120000019
0.0659561099999999 -0.0177019400000002 -0.387390010000018
0.0740861799999999 -0.0118597300000003 -0.388381830000014
0.0880174599999999 -0.00514587000000066 -0.409164300000015
0.09115838 0.00216881999999963 -0.395583979999998
-0.00947047000000012 -0.00950988000000041 -0.40919482000001
0.03796815 -0.0216215399999999 -0.409835689999994
0.06763696 -0.0146921500000001 -0.407089110000015
0.0747985799999999 -0.01073535 -0.407913080000014
0.02661037 -0.0233724899999999 -0.409088010000005
-0.0105652899999999 -0.01175674 -0.399276610000015
0.0493836299999999 -0.0205047900000004 -0.429702630000008
0.0670261299999999 -0.01652129 -0.426193110000014
0.0749230299999999 -0.0110281300000006 -0.427200190000008
0.08999347 -0.00143130000000014 -0.429061759999996
0.0909738499999999 0.000845120000000144 -0.424575680000004
0.0262899299999999 -0.0249231600000002 -0.42806994
0.0563001599999999 -0.0173176100000001 -0.449706910000003
0.08518457 -0.000621640000000312 -0.448425170000007
0.0274543700000001 -0.0226724900000006 -0.447677490000018
0.04980992 -0.0200785000000003 -0.449081290000009
0.06210994 -0.0168607999999999 -0.469436520000016
0.0855460100000001 -0.000411830000000002 -0.467941160000009
-0.00363971000000007 -0.00980837999999995 -0.467101920000005
0.0278639700000001 -0.0223873399999999 -0.466979850000001
0.04460525 -0.0206058800000006 -0.468047970000015
-0.0303115899999999 0.0267945899999997 -0.475540039999998
0.0628986300000001 -0.0158193899999999 -0.4890288
0.08707379 0.0023061499999999 -0.487930169999998
-0.00313664000000013 -0.00904448999999996 -0.486495850000011
0.02694844 -0.0249136300000004 -0.485870239999997
0.0494575399999999 -0.0220449700000005 -0.487380860000002
0.0702648100000001 -0.0119331699999998 -0.509384030000007
0.0898780699999999 0.00763527999999969 -0.508346430000017
-0.00293732000000002 -0.00925716000000065 -0.505798209999995
0.0286407399999999 -0.0219019200000004 -0.505645630000004
0.0457563299999999 -0.0190637900000006 -0.506942620000018
0.0635418800000001 -0.0150497700000001 -0.508529540000012
-0.0304365200000001 0.0254346499999993 -0.509307739999997
0.00629995999999999 -0.0132044100000002 -0.529861320000009
0.0289845399999999 -0.0217951100000002 -0.529876580000007
0.0454220699999999 -0.0204694999999999 -0.526168699999999
0.0641913299999999 -0.0141323400000006 -0.528137079999993
0.0701708699999999 -0.0125654500000003 -0.528777950000006
0.0792312499999999 -0.00539763999999998 -0.549911370000018
0.03973245 -0.0220134999999999 -0.549804560000013
0.0649061099999999 -0.0130174900000002 -0.547805659999995
0.0714755 -0.0104597399999999 -0.54864489000002
0.02940845 -0.0215185500000006 -0.549362060000021
0.07966041 -0.00498183000000019 -0.569488400000012
0.0399250899999999 -0.0220783500000001 -0.569305290000017
0.06586169 -0.0115450200000007 -0.567626829999995
0.0707177999999999 -0.01255878 -0.567748899999998
0.0242195000000001 -0.02161773 -0.568450799999994
0.07807159 -0.00911410000000057 -0.588378779999999
0.09383725 0.00244538000000016 -0.581451290000018
0.04588031 -0.0214794500000002 -0.58924853000002
0.0655355399999999 -0.01280196 -0.58703601000002
0.0716795800000001 -0.0106361700000006 -0.573074210000016
0.08694457 -0.00171741000000036 -0.609832640000008
0.0532503 -0.0173261900000004 -0.609969970000009
0.02447318 -0.0221746700000001 -0.60723864000002
0.0471906600000001 -0.0191105199999999 -0.609222290000019
0.0715579900000001 -0.0118606900000007 -0.60716235000001
0.0586166299999999 -0.01756461 -0.629775880000011
0.0708742099999999 -0.0140321999999999 -0.62632739
0.0878896599999999 -0.000253520000000229 -0.629928460000002
0.09700536 0.00824848999999972 -0.622054930000019
0.0251941600000001 -0.0210522000000006 -0.627014029999998
0.0466570799999999 -0.0208624200000003 -0.628417839999997
0.05920123 -0.01700385 -0.649612300000001
0.07300901 -0.0100458400000001 -0.646865719999994
0.0875034299999999 -0.0017317100000005 -0.649291870000013
0.00735186999999993 -0.0143354700000007 -0.646545279999998
0.04521274 -0.0247114499999999 -0.647354000000007
0.0644798200000001 -0.0177458100000001 -0.669509760000011
0.0873594200000001 -0.0142954199999998 -0.666915770000003
0.0863628299999999 -0.00475008999999993 -0.668502680000017
0.00732755000000007 -0.0151708900000003 -0.665939210000005
0.0471954299999999 -0.0208624200000003 -0.667724480000004
-0.0335402600000001 0.0505687400000001 -0.685012690000008
0.0702052 -0.0175016700000006 -0.689758170000005
0.08708381 -0.00376399000000038 -0.688613770000018
0.0487518199999999 -0.0179880400000005 -0.688033930000017
0.0635700100000001 -0.0202701900000006 -0.688720579999995
-0.03131438 0.0554286699999995 -0.701003900000018
0.0882616000000001 -0.0017946499999999 -0.708907960000005
0.0295090599999999 -0.0259741099999999 -0.709762449999999
0.0476803699999999 -0.0209349000000003 -0.707153190000014
0.0645131999999999 -0.0188043900000006 -0.708816400000018
0.0790772399999999 -0.01030906 -0.706588620000019
0.0329508700000001 -0.0301340400000001 -0.709182609999999
0.07398891 -0.0100992500000006 -0.721145500000006
