"x" "y" "z"
-0.16453553 -0.16780456 0.771057249999984
-0.11946202 -0.53173907 0.723739749999993
-0.10762025 -0.532175860000001 0.728073249999994
-0.10215474 -0.51251491 0.714248779999991
-0.0901003 -0.310894810000001 0.750717289999983
0.09011459 0.0898925500000001 0.791885500000006
0.09404849 0.0971347499999995 0.790847899999989
0.4056816 -0.52494319 0.714431889999986
1.07342242 0.67514531 0.870666629999988
1.09028052 0.67413442 0.877121099999982
1.11260318 0.6780235 0.88922131999999
-0.98226977 -0.452523070000001 0.752029539999995
-0.91240359 0.0903560299999997 0.821334960000002
-0.27678586 0.60108868 0.872253540000003
-0.11800099 -0.51266559 0.71676647999999
-0.10713292 -0.29913314 0.751953249999985
-0.08139897 -0.30210193 0.751709109999979
0.0479612300000001 -0.32014163 0.751052979999997
0.05683898 -0.312086900000001 0.730743529999984
0.07048034 -0.000974489999999939 0.809356820000005
0.29031276 0.39831082 0.830383429999983
0.33574199 -0.0111215900000001 0.777618529999984
0.35139751 -0.0163353300000004 0.78936779999998
0.36873721 0.0514003499999998 0.791549809999992
0.37169074 0.0686408699999994 0.791839729999992
0.58652305 -0.178733670000001 0.751312380000002
0.60968875 -0.1759127 0.751648079999995
0.61421394 -0.1708401 0.750412109999985
0.63747119 -0.17582877 0.767318849999981
-0.96939183 -0.4692982 0.761779910000001
-0.89032603 0.10086362 0.811035279999999
-0.26864148 0.594050569999999 0.870483519999993
-0.15055657 -0.171170070000001 0.760406619999998
-0.09120942 -0.313013870000001 0.737442139999985
-0.0521688499999999 -0.25043185 0.751876960000004
-0.01477719 -0.270738440000001 0.751525999999984
0.0347814499999999 0.0706359599999997 0.792007569999981
0.0437679200000001 -0.29591449 0.752548340000004
0.0477180399999999 -0.31490977 0.730423099999996
0.07443237 -0.0101860299999998 0.787307870000006
0.08188628 0.00463787999999976 0.771209839999983
0.39175796 -0.49204143 0.710846070000002
0.55032348 -0.11150058 0.771133550000002
-0.96131898 -0.454834780000001 0.73239147999999
-0.29205609 -0.0237778000000004 0.771530279999979
-0.29782821 -0.0302541999999999 0.786941649999989
-0.29073621 0.13860623 0.797561769999987
-0.27119256 0.291526 0.827850469999987
-0.26921655 0.28763882 0.819259770000002
-0.27340985 0.59026067 0.86637890999998
-0.26527787 0.59440915 0.868927130000003
-0.15874863 -0.167682490000001 0.766113410000003
-0.07269288 -0.29785998 0.730743529999984
0.256011 0.509003799999999 0.832611209999982
0.33854198 -0.0099380800000004 0.785019049999988
0.63899326 -0.158012230000001 0.750396849999987
1.08821391 0.669272579999999 0.871643189999986
1.09075641 0.6657478 0.877685670000005
-0.97388268 -0.46367915 0.741241579999979
-0.41284085 0.14847199 0.808792240000002
-0.39689542 0.14984433 0.802597169999984
-0.10860444 -0.49416621 0.726638919999999
-0.0248336900000001 -0.2692879 0.744751100000002
-0.02000142 -0.27902301 0.731521729999997
-0.00810051999999994 -0.27345832 0.732421999999985
0.02989577 -0.280537440000001 0.730499390000006
0.21977901 0.36035649 0.810363899999999
0.24886703 0.49584882 0.832702759999989
0.3570938 0.0567351999999994 0.772140629999996
0.37056064 0.0625926699999999 0.774170049999981
0.37142657 0.0493041700000001 0.782898079999995
0.38920688 -0.49038394 0.711135990000002
0.55009746 -0.11300548 0.767715579999987
0.57127284 -0.15283473 0.750656249999992
0.62512111 -0.16518195 0.750717289999983
0.63243198 -0.147115550000001 0.750503670000001
-0.98399115 -0.44413646 0.746902589999991
-0.28900529 0.13740842 0.792999390000006
-0.27184583 0.0464183499999997 0.776870849999995
-0.14607335 -0.17039474 0.757232789999989
-0.05495644 -0.24946101 0.732833989999989
-0.0559263300000001 -0.261116820000001 0.733291750000006
-0.0365610199999999 -0.267851670000001 0.740112429999982
0.0282182600000001 0.0860091899999995 0.771026739999996
0.03304862 0.0759898799999998 0.771850709999995
0.54721641 -0.109822110000001 0.764984260000006
0.54015826 -0.12293323 0.750625740000004
1.07104015 0.66573445 0.857132079999985
1.09100818 0.6637222 0.865112429999982
1.1119852 0.66233365 0.862091190000001
1.35636138 0.80091779 0.890808230000005
-0.388093 0.149630709999999 0.793884399999996
-0.26912118 0.04742829 0.773498660000001
0.0725622100000001 0.0272628499999996 0.771209839999983
0.0949602000000001 0.0859967899999994 0.783798340000004
0.2797985 0.4030277 0.811309940000001
0.29084109 0.40669362 0.829727300000002
0.39211558 -0.51273044 0.706421019999993
0.41715335 -0.51174434 0.709076049999993
1.33243179 0.785750549999999 0.871353279999994
-0.11663724 -0.5070742 0.716629149999989
-0.10997105 -0.487162430000001 0.710922369999992
-0.10009576 -0.297911480000001 0.732208380000003
-0.0668935900000001 -0.290991620000001 0.731521729999997
0.0111846799999999 -0.26422103 0.737167479999982
0.08766746 0.0311099700000002 0.776886109999992
0.25726318 0.483817259999999 0.831466799999987
0.3875246 -0.49135669 0.705902229999992
0.3958063 -0.50224956 0.702942019999995
1.06079864 0.66660039 0.851104859999992
-0.87158538 0.11919133 0.794479499999994
-0.27005769 0.0502578399999996 0.776352049999986
-0.26815892 0.0509301799999999 0.770141730000006
-0.25799466 0.2711517 0.79068006
-0.11171056 -0.49678691 0.70239269999999
-0.10986424 -0.49247153 0.698867919999998
-0.0692615599999999 -0.27242168 0.731475959999983
-0.0459756900000001 -0.2733887 0.735839970000001
0.000252719999999984 -0.2571152 0.730148439999994
0.0475397 -0.290991620000001 0.734436160000001
0.0699920599999999 0.00773826999999994 0.760604979999982
0.0774631399999999 0.00743595999999958 0.751968509999983
0.36981773 -0.48286708 0.693924079999988
0.36930751 -0.49062808 0.698257569999981
0.41569423 -0.500292620000001 0.702896240000001
-0.37101365 0.143329779999999 0.777435429999997
-0.29278947 -0.0172794600000001 0.75286878
-0.29048253 0.145610019999999 0.786132939999987
-0.27242852 0.1437122 0.774810919999993
-0.13001443 -0.17178233 0.733978399999984
-0.1040659 -0.47274478 0.695373660000001
-0.09184266 -0.291642980000001 0.722442749999999
-0.07854176 -0.29042609 0.712844969999992
0.0322074800000001 -0.28257449 0.730331549999988
0.03880405 -0.29994281 0.711593749999992
0.0485820699999999 -0.31176456 0.725875979999984
0.0537929500000001 -0.311604340000001 0.727737550000001
0.0506048100000001 -0.2949818 0.714584479999985
0.0794219899999999 0.0299903599999993 0.756012089999984
0.0977649599999999 0.10445515 0.77049267999999
0.24760436 0.49046246 0.81301891999999
0.24764251 0.48483197 0.813263070000005
0.25781631 0.48979871 0.810196050000002
0.5918188 -0.52321704 0.698333869999999
-0.27958871 -0.01510604 0.750045900000003
-0.27623559 0.129241149999999 0.780044680000003
-0.26069547 0.26612775 0.79554761
-0.06912232 -0.29176696 0.712127809999998
-0.06435681 -0.27070697 0.729995849999995
-0.01592065 -0.27390941 0.716217169999993
0.21003246 0.36937444 0.791854979999982
0.35191821 0.0597411799999996 0.766479619999984
0.58682441 -0.522075490000001 0.692474489999995
1.06095313 0.662575879999999 0.838592659999989
1.07227992 0.65549008 0.847015510000006
-0.1119566 -0.17543109 0.730163699999991
-0.08914662 -0.45187076 0.690628180000004
-0.03105069 -0.27546008 0.711670049999981
-0.00912095000000002 -0.27078708 0.726608400000003
-0.00029754999999998 -0.26042064 0.710266239999982
0.0324201499999999 -0.27297862 0.712432989999996
0.2150936 0.83958165 0.850021489999989
0.27074718 0.39740865 0.800216799999987
-0.36859704 0.14415089 0.771041999999994
-0.25783063 0.0653697699999993 0.75125134999999
-0.08945943 -0.47186263 0.694442879999997
0.06851005 0.0153476399999999 0.750335820000004
0.0937108899999999 0.108557859999999 0.754364140000007
0.34790515 0.0738650999999999 0.755249149999997
0.3477869 0.0621415799999996 0.76091015999998
0.33334827 -0.45035251 0.690445069999981
0.34954166 -0.47454341 0.691452150000003
0.57685184 -0.15000613 0.731750610000006
0.59062099 -0.16021808 0.730453619999992
0.89560603 -0.519568280000001 0.692520269999989
-0.25661374 0.25258939 0.772277959999997
0.0248317599999999 -0.27041324 0.713302739999989
0.32148551 0.0195380900000002 0.751236089999992
0.53965186 -0.12885745 0.730758789999982
0.55403995 -0.13881 0.731887939999979
0.56643294 -0.15678676 0.731308109999986
1.04302596 0.65675084 0.830505499999987
-0.24844457 0.51437871 0.816421629999979
0.0107850899999999 -0.24853404 0.714462409999982
0.02936362 -0.29249271 0.712051519999989
0.2148714 0.37212293 0.791442999999987
0.24414252 0.475148359999999 0.79356396999998
0.25071143 0.48856274 0.793441900000005
0.31362819 0.0756246300000001 0.751937989999988
0.330204 0.0155936899999993 0.751114019999989
0.37207793 -0.4896458 0.689560059999991
0.54074287 -0.1340874 0.73098766999999
0.69666576 -0.0128391600000004 0.741943489999983
0.85110854 -0.49148162 0.691970949999984
0.88997649 -0.51629623 0.690536619999989
-0.79271031 0.14689938 0.77268995
-0.35376883 0.13849179 0.754531990000004
-0.29278851 -0.0174997600000006 0.749588139999986
-0.28166009 -0.01492103 0.74734509999999
-0.27935696 0.14957349 0.751663329999985
-0.27006722 0.12490765 0.760482909999979
-0.24585915 0.50899808 0.816162239999983
-0.01127721 -0.26864703 0.715179570000004
0.0692481899999999 0.0253822000000001 0.730560429999997
0.0770559200000001 0.0200969400000002 0.731872679999981
0.09461784 0.0875712999999996 0.754394660000003
0.2226591 0.83287732 0.84294140999998
0.21322059 0.81598965 0.833236819999996
0.31401538 0.0275603899999997 0.73077404999998
0.33075618 -0.454832870000001 0.67468273999998
0.34962558 -0.47206958 0.685821659999988
0.3500328 -0.47767814 0.683273439999994
0.54727649 -0.1307505 0.711792119999984
0.55059528 -0.134799800000001 0.711639529999985
0.55350017 -0.153282 0.71018995
0.57062434 -0.15024264 0.725143559999992
1.03113078 0.65080754 0.818802009999985
1.03039264 0.64835278 0.817031990000004
0.8527727 -0.49069007 0.671692019999995
0.88011455 -0.51348956 0.685043460000003
0.89550208 -0.51856788 0.687378059999986
-0.78780175 0.14871899 0.771896489999989
-0.70148135 0.17624394 0.777542240000002
-0.24133397 0.49216763 0.801803710000002
-0.10160733 -0.471481160000001 0.684524659999994
-0.10081483 -0.46284183 0.689941529999999
-0.0884618800000001 -0.451519810000001 0.678619510000004
-0.0801639599999999 -0.28129848 0.712585579999995
0.0203342399999999 -0.28688892 0.693374759999983
0.0277757599999999 -0.29061206 0.69715893999998
0.0442590599999999 -0.298120340000001 0.705017220000002
0.21505069 0.3848087 0.771652349999982
0.87249755 -0.503643830000001 0.674133429999983
-0.34825755 0.14093701 0.750061160000001
-0.25000668 0.246806309999999 0.770919929999991
-0.24969197 0.2489864 0.771026739999996
-0.2373829 0.4842178 0.798675659999986
-0.0701770900000001 -0.28166946 0.704559450000005
-0.0544652999999999 -0.27629169 0.690200930000003
-0.04928971 -0.279592350000001 0.693557870000006
-0.0103254400000001 -0.2705973 0.690582399999982
-0.01038457 -0.26997169 0.693664679999983
0.00731562999999991 -0.25077232 0.702880989999983
0.01504039 -0.265845140000001 0.711425910000003
0.0524826 0.0579101299999998 0.739868290000004
0.24484634 0.46914784 0.793899659999994
0.30666446 0.0699588499999999 0.74794018999998
0.31571387 0.0744735399999996 0.732360970000002
0.31235122 -0.43174632 0.670044069999989
0.32589339 -0.45125468 0.672332890000007
0.35066318 -0.45968707 0.678161749999987
-0.25177384 0.0729209599999994 0.732040530000006
-0.25385762 0.0626021999999997 0.73718273999998
0.01537418 -0.25005229 0.690323000000006
0.03170776 -0.27023967 0.706634649999984
0.10459899 0.1058542 0.74992383
0.25143336 0.469195529999999 0.791717659999989
0.30714606 0.07467954 0.746994139999998
0.31031894 -0.42881759 0.672622810000007
-0.71182919 0.17204587 0.757827879999979
-0.70392705 0.1697704 0.759597899999989
-0.69017268 0.17552392 0.756744510000004
-0.26658727 0.12620465 0.750976689999987
-0.25014973 0.24687116 0.763916139999992
-0.24626256 0.23131863 0.750457890000007
-0.13795853 0.121432459999999 0.75088513999998
-0.0879411800000001 -0.435110890000001 0.684311039999983
0.0623855499999999 0.0335685400000001 0.73179639
0.0885868000000001 0.0688945499999996 0.730133179999996
0.21933841 0.79610364 0.815277229999992
0.22047328 0.81231038 0.824325689999995
0.23932552 0.4543411 0.774337889999998
0.2504835 0.468936129999999 0.771225099999981
0.44239902 -0.194921330000001 0.703949099999988
-0.92522479 -0.43130668 0.703537109999985
-0.26347638 0.11820905 0.730346809999986
-0.24908925 0.0652476999999996 0.73135388999998
-0.14140416 0.12374608 0.744552739999989
0.00472545000000002 -0.2728947 0.690109379999996
0.08113288 0.0484449099999997 0.732483040000005
0.09082507 0.0610362699999998 0.730194219999987
0.69126605 -0.0288818700000002 0.713684209999997
-0.67799378 0.1732742 0.751236089999992
-0.35288144 0.14339368 0.741882449999991
-0.33380366 0.13710324 0.73231518999998
-0.27091695 0.13123814 0.73718273999998
-0.27280618 0.12823407 0.730377320000002
-0.22708798 0.45105855 0.772659430000004
-0.09293843 -0.44379886 0.674316529999999
0.30741882 -0.430373980000001 0.681396609999979
0.52806281 -0.13556655 0.710830810000004
0.5301752 -0.13071902 0.691452150000003
0.55042266 -0.14923556 0.700058109999986
0.55489921 -0.16118701 0.692764409999995
-0.32987405 0.14023129 0.732421999999985
-0.24108983 0.2267925 0.751434450000005
-0.06391049 -0.255909760000001 0.707397589999999
0.0439157399999999 0.0631648699999996 0.734054689999994
0.05015277 0.0469609899999996 0.710296760000006
0.0694379700000001 0.0279418599999994 0.725555549999996
0.0796489599999999 0.02730576 0.722335939999994
0.0724477699999999 0.0330859800000001 0.713623170000005
0.21775912 0.38838498 0.760406619999998
0.26363849 0.401377839999999 0.778823979999999
0.29428386 -0.4121712 0.670730719999995
0.52130794 -0.1350735 0.690536619999989
1.02273559 0.63925664 0.806656009999983
0.85812091 -0.4930218 0.658737309999992
-0.24640561 0.0702649800000001 0.733230719999995
-0.22584058 0.44842259 0.772583129999987
0.00578783999999999 -0.27962764 0.678436409999989
0.0261602299999999 -0.28518184 0.689300659999986
0.03193187 -0.27383311 0.680557379999982
0.04224681 0.05771558 0.714264039999989
0.09368705 0.0679656699999995 0.712844969999992
0.22384929 0.39990727 0.750869879999982
0.24232387 0.43573109 0.770568969999999
0.25163268 0.402087369999999 0.769531379999989
0.29047107 -0.43011172 0.653274659999994
0.31032657 -0.4382151 0.665084960000002
0.32685756 -0.45076831 0.669418460000003
0.84992789 -0.48848231 0.660614140000007
0.84959411 -0.49042972 0.666336189999981
-0.24664212 0.0698501299999998 0.72030651999998
-0.24711896 0.0867177699999999 0.712158329999994
-0.24146081 0.21130101 0.730255249999999
-0.15474702 0.125093619999999 0.731659059999998
-0.09129144 -0.43886073 0.669113289999984
-0.08436204 -0.44381221 0.659576539999989
-0.0884971700000001 -0.42856773 0.673858769999981
-0.05196095 -0.25816043 0.673111089999992
-0.05183698 -0.271574810000001 0.683364990000001
-0.0344972700000001 -0.27153285 0.676498539999983
-0.0149087999999999 -0.27412112 0.670044069999989
0.21891784 0.414288679999999 0.75486767999999
0.23077773 0.41928021 0.765426759999997
0.25115108 0.0923301399999996 0.711227539999982
0.29039478 -0.42377551 0.652816900000005
-0.27558804 0.00730435000000007 0.710113649999982
-0.25201989 0.0730258599999996 0.727142459999982
-0.22211171 0.43167226 0.758422980000006
-0.08421517 -0.41931232 0.65846264999999
0.0498313799999999 0.0472137099999994 0.715301640000007
0.23893642 0.40913121 0.750534179999988
0.24559974 0.0914012599999996 0.718460209999989
0.27932071 -0.41084178 0.650451790000005
0.45449065 -0.1703852 0.69398511
0.51762103 -0.11128886 0.691848879999981
0.85271548 -0.489764050000001 0.660431029999984
0.87204646 -0.50041278 0.65609753999999
-0.65164615 0.1749355 0.730194219999987
-0.32584334 0.12636105 0.733444340000005
-0.25547124 0.12127606 0.719665649999996
-0.0650148500000001 -0.39012225 0.651229979999982
-0.03847409 -0.26846584 0.670944340000005
-0.0137224300000001 -0.26965984 0.672226080000002
0.20843696 0.77490537 0.792266969999986
0.21058368 0.77028767 0.794616829999995
0.27014636 -0.396872360000001 0.65065014999999
0.53012942 -0.12509044 0.691009649999984
0.70783519 -0.0287540700000006 0.694046149999991
-0.89985228 -0.41568835 0.671661499999999
-0.33194638 0.140999949999999 0.724151739999996
-0.32151986 0.1290857 0.719238410000003
-0.32747699 0.1386625 0.727951179999991
-0.21918679 0.423403899999999 0.752609379999996
-0.0680627899999999 -0.41001113 0.651062139999993
0.20945834 0.759713329999999 0.790100219999999
0.21054553 0.75749699 0.790039189999987
0.26412772 -0.39064868 0.650970580000006
0.50395202 -0.11235507 0.69133008
-0.2724743 0.00808255000000013 0.70695508
-0.24079228 0.209187669999999 0.732498289999995
0.0649518899999999 0.0461360599999994 0.692489749999993
0.07056522 0.0458747599999993 0.690902840000007
0.0926332400000001 0.0734759999999994 0.710006840000005
0.21907806 0.396582759999999 0.730835089999999
0.23300075 0.40726392 0.730743529999984
0.45713519 -0.15231307 0.683075079999981
0.51101588 -0.11178382 0.672332890000007
0.53203296 -0.12353595 0.686874520000003
0.88526344 -0.50646384 0.641250740000004
0.88989352 -0.515992000000001 0.639389159999979
-0.30822087 0.13655965 0.71218884999999
-0.26320363 0.00964467000000013 0.700393800000001
0.04174232 0.0578834199999996 0.694381840000005
0.09800243 0.0697051699999998 0.706649909999982
0.20316981 0.75326459 0.770919929999991
0.21034907 0.76252286 0.787277349999982
0.50847434 -0.11014255 0.670013549999993
0.69045257 -0.0318735400000003 0.692108279999985
0.89499091 -0.51842769 0.636428959999989
-0.64813138 0.17254464 0.73924267999999
-0.63184167 0.17666165 0.711624269999987
-0.30984259 0.12508027 0.710968140000006
-0.2729416 0.0141231199999998 0.701110970000002
-0.21383191 0.41304128 0.740799079999988
-0.0466137 -0.255762890000001 0.653137329999993
-0.0149049800000001 -0.26642497 0.650299200000006
0.00722120999999998 -0.263613540000001 0.65124523999998
0.00746534999999993 -0.271077 0.668884399999996
0.0196752499999999 -0.27057536 0.668762329999993
0.01939677 -0.25526984 0.652084479999985
0.0868463399999999 0.0574409199999995 0.691894660000003
0.09417247 0.0770990099999995 0.690384039999998
0.24936961 0.10717694 0.69583141999999
0.25776767 0.10832898 0.691269049999988
0.29228305 -0.43234142 0.647674690000002
0.45745849 -0.14915069 0.680160650000005
0.94728278 0.59050099 0.754959229999997
1.17252063 0.72770039 0.778381469999999
-0.89842082 -0.41685851 0.667099119999989
-0.88138486 -0.41064151 0.652816900000005
-0.88607789 -0.39811977 0.652801640000007
-0.65079261 0.18538777 0.713928350000003
-0.25957013 0.0142509199999994 0.691864140000007
-0.24680425 0.08677022 0.702728399999984
-0.23767949 0.19331281 0.712112550000001
-0.21138287 0.40188519 0.732284669999984
-0.2040453 0.40999333 0.730835089999999
-0.16909886 0.12083451 0.713928350000003
-0.05023003 -0.255674200000001 0.65882886
0.0343894899999999 0.0746928899999997 0.693039069999998
0.2069683 0.74896733 0.770462159999994
0.21835994 0.741336029999999 0.773864869999983
0.23402976 0.0813447699999994 0.690399299999996
0.25097083 0.0879871099999994 0.704177979999997
0.25308036 -0.39016994 0.635711799999996
-0.25108815 0.1163799 0.70231640999998
-0.2484007 0.0934392599999994 0.697479369999996
-0.20157147 0.41366498 0.730331549999988
-0.167799 0.12231366 0.704986700000006
-0.07776166 -0.412501170000001 0.648254519999995
-0.0757446400000001 -0.39488109 0.64770519999999
-0.0693855400000001 -0.392204120000001 0.637222420000001
-0.0684833600000001 -0.381114800000001 0.652526980000005
0.23446178 -0.37128432 0.631225709999995
0.27236938 -0.40205272 0.645279060000007
0.50482272 -0.10335239 0.670059329999987
-0.31048442 0.13897435 0.709350709999995
-0.31039668 0.12743108 0.708633550000002
-0.29175187 0.12673776 0.702438479999984
-0.28737832 0.1354057 0.692718630000002
-0.28749181 0.12971036 0.697738770000001
-0.06624509 -0.37067302 0.631973389999985
0.02993106 0.0896331500000001 0.696899540000004
0.20421123 0.735530059999999 0.750854619999984
0.21479224 0.73026578 0.764724860000001
0.24926948 -0.3903168 0.644973879999981
0.3104515 0.0817271899999996 0.696121339999991
-0.29132748 0.13208215 0.692581300000001
-0.23561955 0.17676656 0.694244510000004
0.05736159 0.0516015699999999 0.691299560000004
0.22130202 0.406924409999999 0.710632449999991
0.21484851 0.0906879099999998 0.691513189999995
0.22964954 0.0828181899999993 0.695678839999999
0.29856872 0.0822497999999996 0.69000256999999
-0.80733109 0.24584882 0.718475469999987
-0.62741614 0.17661588 0.710449339999997
-0.23509694 0.12828652 0.690872319999983
0.04324054 0.0629741399999997 0.674255499999987
0.0518693800000001 0.0595370900000001 0.670578129999996
0.0558099699999999 0.0493690199999994 0.680984620000004
0.08669471 0.0675803799999999 0.670135619999996
0.09009456 0.0694533999999996 0.670349249999987
0.21220016 0.71676747 0.752838260000004
0.29030322 0.0899659799999997 0.685531739999988
0.47955035 -0.0900963099999998 0.657364019999989
0.49213695 -0.11236079 0.654602179999983
0.51044177 -0.11188586 0.662765629999996
-0.61187554 0.18087689 0.695877199999984
-0.07056332 -0.37974342 0.642273079999995
-0.0653982200000001 -0.365232310000001 0.631744510000004
0.0279846100000001 0.0786258399999999 0.671814089999998
0.09735107 0.0840751299999996 0.670349249999987
0.20652007 0.72836987 0.750808839999991
0.21145534 0.105845609999999 0.67320264
0.21390437 0.0862056399999993 0.674240239999989
0.48935222 -0.11192973 0.653137329999993
1.05669784 0.69541852 0.750656249999992
-0.86843158 -0.40276988 0.654281739999988
-0.808527 0.250525639999999 0.710876589999998
-0.25087739 0.0255138099999996 0.67283642999999
-0.23349095 0.10406987 0.671356329999981
-0.04600621 -0.3374451 0.630813719999992
-0.03027917 -0.26099666 0.634201179999991
-0.0281553299999999 -0.26239188 0.639434940000001
-0.00937652999999994 -0.26680358 0.631530889999993
0.0129604299999999 -0.25173457 0.630981569999989
0.0332183799999999 0.0752240799999999 0.67312634999999
0.22146415 0.3842365 0.710342529999991
0.21412086 -0.350274880000001 0.632309090000007
0.22860908 -0.37026675 0.630005009999991
0.59612369 -0.0561321600000007 0.663681159999982
0.61802959 -0.0500648799999999 0.66656506999999
0.94464397 0.591742679999999 0.749435549999987
0.95114326 0.5914623 0.734817629999981
1.05812835 0.689551509999999 0.750808839999991
-0.87082387 -0.39180263 0.637298709999982
-0.86437226 -0.39276775 0.633346679999988
-0.27039338 0.124148529999999 0.677353030000006
-0.25972749 0.12350194 0.671203739999982
-0.25047494 0.10955827 0.683075079999981
-0.22388459 0.12914769 0.671814089999998
-0.0485124700000001 -0.36613544 0.631729250000006
0.19824218 0.71096341 0.73231518999998
0.21156024 0.7106754 0.739273199999985
0.27139568 0.0739385299999995 0.670761229999982
0.49688815 -0.0989921900000006 0.650512819999989
1.05070781 0.67666737 0.730163699999991
-0.82432366 0.25460355 0.710662969999987
-0.29681302 0.133486909999999 0.688186769999987
-0.29382516 0.12484471 0.688980229999999
-0.2265091 0.10960023 0.670242439999981
0.0106039 -0.23379787 0.649978759999982
0.20188808 0.709189579999999 0.731842169999993
0.20243072 0.37207715 0.690948609999992
0.21556186 0.38778607 0.690216190000001
0.20867633 0.0951701799999993 0.673523079999995
0.21099281 -0.35510715 0.616333129999987
0.22390556 -0.37059482 0.624099860000001
1.08213615 0.48056332 0.712341429999981
-0.82843304 0.253459139999999 0.704773079999995
-0.25185967 0.0330669099999996 0.670333989999989
-0.05943776 -0.37114032 0.629013189999995
-0.0603456600000001 -0.35038264 0.626312380000002
-0.0457601599999999 -0.365959960000001 0.623642090000004
0.02607059 -0.125891520000001 0.650116089999983
0.21069907 -0.34883197 0.618774540000004
1.06879043 0.486128969999999 0.716430790000004
-0.2735014 0.13225095 0.679473999999999
-0.0416469699999999 -0.339782550000001 0.622131469999999
0.06682586 0.06240193 0.650131349999981
0.08334541 0.0678979599999998 0.650619629999994
0.20797919 0.0899478599999997 0.671768310000004
0.20523357 -0.351563290000001 0.61129772999999
0.91118144 0.57802884 0.721771369999999
0.95154571 0.60957257 0.729171879999996
0.95864295 0.61405484 0.72317516999999
0.02925014 0.08926503 0.667205940000002
0.0472364299999999 0.0603992199999999 0.65971386999999
0.0956363599999999 0.0863200800000001 0.651336799999996
0.19774722 0.10752694 0.652069219999987
0.27045154 0.0903751100000001 0.668167240000002
0.46632098 -0.0985554000000004 0.630874759999983
0.47516536 -0.09488567 0.630081300000001
0.49042415 -0.0936020200000005 0.640731939999995
0.49039935 -0.0876549100000004 0.642898689999981
0.89182948 0.56478803 0.711013919999999
-0.53940488 0.27036206 0.690200930000003
-0.23529721 0.0452138599999996 0.650497559999991
0.67128181 0.55018346 0.712722899999989
0.674757 0.54873006 0.712539800000002
1.0820589 0.480549969999999 0.708862429999982
-0.58140899 0.18585317 0.679306159999982
-0.23487378 0.10760133 0.659210329999979
-0.22654057 0.106565639999999 0.652969490000004
-0.2133875 0.12976662 0.650116089999983
-0.0331249300000001 -0.25316508 0.613540779999994
-0.0141058000000001 -0.26838954 0.611206179999982
-0.00684262000000002 -0.26442416 0.619720580000006
0.0157899799999999 -0.23876651 0.610839970000001
0.03258228 0.0755263999999993 0.658187989999988
0.0899152699999999 0.0723773699999999 0.651031619999998
0.19577407 -0.331336810000001 0.611114630000003
0.66721915 0.54845158 0.708892950000006
0.67075538 0.54558865 0.708633550000002
-0.25435353 0.125558059999999 0.66664136
-0.23478032 0.11309831 0.654083380000003
-0.20898534 0.12199895 0.664383060000006
-0.0544138000000001 -0.33022006 0.615661749999987
0.46172523 -0.0762718500000004 0.630706909999986
-0.56878281 0.18790738 0.671463139999986
-0.54444314 0.24419133 0.672332890000007
-0.03876496 -0.333222230000001 0.605041629999988
0.11315726 0.0920936299999999 0.65286266999999
0.18182944 -0.33160289 0.597381719999987
0.19620132 -0.33119662 0.608307010000004
-0.55052901 0.18719403 0.658279539999995
-0.23259068 0.0497256899999998 0.644073609999992
-0.05092812 -0.32897933 0.608032350000002
-0.05071545 -0.333926040000001 0.608078129999996
-0.04847432 -0.31598361 0.605331549999988
0.03275966 0.0810281499999999 0.633148320000004
0.0462779899999999 0.06804101 0.630172859999988
0.05827235 0.0624457999999999 0.631897100000003
0.0798349299999999 0.0696441299999995 0.63119519
0.0896549099999999 0.0765143999999998 0.631805549999996
0.0966386699999999 0.0897170699999998 0.634704720000002
0.09958362 0.10818498 0.630584839999983
0.11310577 0.0943938900000001 0.649734620000004
0.45380305 -0.0910995799999998 0.612198000000006
0.47029494 -0.0917805000000005 0.617752199999984
0.47185897 -0.0824869499999998 0.632293829999981
0.66116332 0.51353757 0.69007886
0.87139033 -0.57944568 0.571807989999996
-0.23141099 0.0521880799999996 0.639648559999983
-0.19487096 0.290000119999999 0.669265870000004
-0.20047475 0.27088849 0.650802739999989
0.00960921000000003 -0.24929698 0.612869389999986
0.1731615 -0.32504161 0.593582279999993
0.45531367 -0.0707615200000005 0.610641609999988
0.66065406 0.51337163 0.687881599999997
0.86939143 -0.574217640000001 0.572372559999991
0.88117408 -0.590719060000001 0.579559450000005
-0.54340745 0.18767278 0.654098640000001
-0.23186017 0.122306979999999 0.644271979999985
-0.22523118 0.11796681 0.630432249999984
-0.20655347 0.129059949999999 0.631958129999987
-0.0211830200000001 -0.276210620000001 0.590301640000007
-0.0268240100000001 -0.268822510000001 0.599533210000004
-0.00379277 -0.25883563 0.590316900000005
0.0065173999999999 -0.247988540000001 0.59140026999998
0.02872085 0.0892879199999994 0.637497069999995
0.65795612 0.49552647 0.670700199999999
-0.53865243 0.19001119 0.654342779999979
-0.23002625 0.109748049999999 0.645080689999986
0.0104246100000001 -0.24305232 0.590652589999991
0.16968631 -0.32180579 0.590515259999989
0.47065543 -0.0888489100000003 0.625244269999996
0.86190604 -0.56675609 0.570068489999983
-0.20108796 0.26773755 0.65101636
0.4499998 -0.0749595900000006 0.612487920000007
0.78432178 0.483861129999999 0.670807010000004
0.84806728 -0.562373 0.570358400000003
-0.52959014 0.18409077 0.651428350000003
-0.21321965 0.10830705 0.630890019999981
-0.0356702900000001 -0.76785644 0.551956300000001
0.0299901899999999 0.10049359 0.632156499999979
0.4488964 -0.0655029599999999 0.611190919999984
0.86989307 -0.57136806 0.569748049999987
0.85726642 -0.55998023 0.567794929999991
-0.53236771 0.18572537 0.645630009999991
-0.51171923 0.18903462 0.632888919999999
-0.22031308 0.0630828599999997 0.630142339999992
-0.19802476 0.25047032 0.639862190000002
-0.0377807700000001 -0.76909907 0.546188479999984
-0.0261173299999999 -0.76975902 0.541229369999996
-0.0289077799999999 -0.29231914 0.591995370000006
0.03716754 0.0780917799999994 0.613723879999981
0.0568990599999999 0.0653487899999998 0.611969119999998
0.0763177799999999 0.0692779199999993 0.611572389999992
0.0894298499999999 0.0769282999999996 0.612198000000006
0.09960364 0.0873824799999996 0.613098269999995
0.15790557 -0.309780910000001 0.59146131
0.16008186 -0.31135352 0.580642829999988
0.69168185 -0.36323054 0.588409549999994
0.84775256 -0.54759105 0.565948609999992
0.84888457 -0.55734142 0.567932249999984
-0.23136426 0.0663510999999994 0.624542359999992
-0.2274437 0.0693904600000002 0.614059569999995
-0.19892026 0.232031979999999 0.63510144
-0.02910901 -0.29242213 0.589218270000003
0.02999782 0.10667912 0.622039919999992
0.02778529 0.08859174 0.620193610000001
0.09736346 0.107365769999999 0.61187756999999
0.14350032 -0.291403610000001 0.57023633
0.15032767 -0.30662616 0.573059209999997
0.44396018 -0.0704792300000001 0.591613899999999
0.45047759 -0.0702503500000002 0.601028569999983
0.68208312 -0.36081679 0.572281009999983
-0.21234608 0.11549298 0.612075930000003
-0.19657708 0.12952725 0.610611089999992
-0.19828893 0.2292587 0.635116699999998
-0.0372419400000001 -0.7723759 0.531219609999994
-0.02373029 -0.27429755 0.570388919999999
0.000802989999999948 -0.25369342 0.572433599999982
-0.2229538 0.0770608599999996 0.610290649999996
-0.18906976 0.22349088 0.630798470000002
0.00988291999999991 -0.23711665 0.570495730000005
0.01104259 -0.233515580000001 0.570175299999988
0.05015372 0.0701820099999999 0.615188719999992
0.43573951 -0.0549972800000003 0.591674929999982
0.17352008 0.10966794 0.61033642999999
0.19038581 0.10338418 0.621673709999982
0.358222 0.879306 0.690048340000004
0.38664149 0.90976636 0.692855960000003
0.39765262 0.92672269 0.690231449999999
0.41362094 0.94919507 0.694000369999998
-0.79870129 -0.3750809 0.572433599999982
0.17734527 0.0869018299999995 0.610900999999984
0.35123157 0.883481189999999 0.677597169999984
0.38648223 0.908633389999999 0.685165530000006
0.39256953 0.920985379999999 0.688934450000005
0.41352939 0.95631711 0.691360599999996
0.42932223 -0.0710686000000003 0.5969087
-0.21002389 0.10334317 0.613327150000003
-0.18948651 0.19177358 0.61615003
-0.03582288 -0.282288390000001 0.57937634999999
0.0354299499999999 0.0789806099999995 0.593689089999998
0.06479167 0.0653258999999995 0.59080517999999
0.0728368699999999 0.0697519 0.598663459999983
0.0892362499999999 0.07663361 0.592605719999995
0.0992822600000001 0.0865804399999996 0.590103279999994
0.17782497 0.0895654399999994 0.609497199999993
0.17153644 0.09034268 0.590026980000005
0.34208583 0.86207501 0.677444579999985
0.42748927 -0.0560844700000001 0.592758299999986
0.66015815 0.45247762 0.640045289999989
-0.21593381 0.0887576799999996 0.60023511
0.02707576 0.0796176599999994 0.599899419999986
0.0564289 0.0700332299999999 0.592239509999985
0.09565829 0.10958592 0.590255859999985
0.12804221 -0.293317630000001 0.571090819999995
0.66296195 0.43877332 0.631057870000006
-0.21078778 0.0969621399999996 0.596374639999993
-0.20617581 0.10557286 0.598373539999983
-0.20756436 0.112321059999999 0.593231329999981
-0.0115099000000001 -0.2624348 0.571350219999999
0.0124120599999999 -0.22057136 0.572174200000006
0.12806796 -0.29021724 0.568237429999982
0.13248538 -0.29039081 0.560196050000002
0.42564773 -0.0623978000000003 0.570175299999988
0.43037795 -0.0519846300000006 0.574234129999979
0.43161487 -0.0708721500000005 0.57768261999999
0.63066863 -0.299493630000001 0.568725709999995
-0.80635644 -0.36526569 0.57289136
-0.78294516 -0.37524303 0.573242309999983
-0.03291131 -0.272877530000001 0.568237429999982
-0.02335931 -0.27100356 0.558654910000001
-0.0257024800000001 -0.26481517 0.554046760000006
-0.00605202999999999 -0.25377925 0.550277840000007
0.00574396999999993 -0.24518665 0.551437499999992
0.12040614 -0.271571000000001 0.55210889
0.16995143 0.0926086100000001 0.590103279999994
0.33406734 0.80143277 0.658676270000001
-0.79215623 -0.37021716 0.568374759999983
-0.78740741 -0.37194617 0.5588075
-0.18496705 0.113527459999999 0.592239509999985
-0.0331754799999999 -0.2657574 0.558685429999997
0.01206302 -0.23617252 0.55041516999998
0.13061427 -0.28186877 0.55992139
0.60318469 -0.264433700000001 0.567169320000005
-0.46728993 0.187798659999999 0.607772949999998
-0.03227139 -0.24215587 0.552902349999982
0.11231422 -0.26293071 0.552505620000005
0.79059505 -0.48551448 0.539138919999999
-0.79107762 -0.369047 0.563156249999992
-0.43447734 0.188765689999999 0.591064579999994
-0.21068955 0.120109719999999 0.602371339999991
0.03646087 0.0783340199999998 0.583908210000004
0.0692396099999999 0.0701610299999995 0.572616699999998
0.0623769699999999 0.0658218100000001 0.570800910000003
0.0726613899999999 0.0698768300000001 0.582321289999982
0.0889692200000001 0.0725280499999998 0.572616699999998
0.09242438 0.0762263999999995 0.576233040000005
0.10991954 -0.275756680000001 0.551452759999989
0.15744495 0.09339444 0.570175299999988
0.17083072 0.0929452599999996 0.579315309999998
-0.21139813 0.11510674 0.586044439999995
-0.19026566 0.10118787 0.580139290000005
-0.18067456 0.12315575 0.571670659999995
0.14818668 0.0991155299999997 0.571228149999996
0.42439269 -0.0657375600000005 0.550018440000002
0.43278407 -0.0615089700000002 0.553146489999989
-0.19798947 0.11188523 0.574508789999982
-0.18412019 0.10862367 0.571624880000002
0.0142936599999999 -0.21045764 0.551620609999986
0.0988893399999999 -0.27238734 0.534851199999991
0.11316585 -0.27191814 0.544494749999984
-0.78903628 -0.3645695 0.553772100000003
-0.42788268 0.18185727 0.591140870000004
-0.0719223099999999 -0.573513820000001 0.512481820000005
-0.03178788 -0.23071178 0.537323119999996
-0.03143597 -0.25247272 0.545349249999987
-0.01629353 -0.25298103 0.533889899999991
-0.00556087999999999 -0.25354846 0.533187989999988
0.00519942000000007 -0.24537738 0.531662109999985
0.01541328 -0.23765357 0.53021253
0.0932283299999999 -0.25044902 0.53146375
0.1904211 0.31824986 0.593216069999983
0.40382671 -0.0307443900000006 0.550476199999991
-0.78779221 -0.365618550000001 0.549179199999998
-0.43056823 0.18624608 0.586715819999995
-0.41507054 0.18767468 0.578247199999993
-0.21072007 -0.58055194 0.516433839999991
-0.20241547 -0.577854 0.516571169999992
0.17171573 0.31719891 0.592163209999995
0.40885257 -0.0516308100000007 0.55070508
-0.76172973 -0.3504761 0.53184521999998
-0.61306477 -0.48073562 0.532150389999998
-0.0258092999999999 -0.240674810000001 0.533020149999999
0.0326833600000001 0.0860168199999993 0.553634770000002
0.0558585999999999 0.0714570700000001 0.5500337
0.0567979699999999 0.0688401899999995 0.550323609999992
0.07244586 0.0703908599999998 0.562820560000006
0.11036586 -0.26984962 0.54187023999998
0.1708641 0.30578915 0.582611209999982
0.17088985 0.329098859999999 0.581756719999987
0.19002151 0.31274525 0.572357299999993
-0.61140252 -0.47160228 0.524139529999985
-0.0308885700000001 -0.225198590000001 0.532226689999987
0.08338355 0.0649635000000002 0.558838019999996
0.14984225 0.0991384200000001 0.552002079999994
0.15238952 0.108632249999999 0.551345949999984
0.5915327 0.36855618 0.576950199999999
0.59526157 0.379836239999999 0.575882079999985
-0.40923167 0.18938367 0.573791629999988
-0.19623566 0.11612813 0.550293089999997
-0.1884451 0.12871472 0.550201539999989
-0.0719537800000001 -0.5742472 0.506683479999992
0.08849525 -0.260081130000001 0.531616339999999
0.41032504 -0.0528591500000006 0.540664800000002
0.4311943 -0.0612562500000005 0.53994763999998
0.39945029 -0.0300558400000002 0.530349860000001
0.40504741 -0.0524557400000001 0.538635379999988
0.42837047 -0.0723789500000001 0.547378670000001
0.43601321 -0.0752781200000001 0.543075689999995
0.58305453 0.36794202 0.570922980000006
-0.61228991 -0.46593364 0.515777709999981
-0.6095872 -0.46298679 0.515869269999996
-0.38996793 0.17837827 0.572204720000002
0.0716304699999999 -0.25117572 0.511306889999986
0.0905198999999999 -0.25162585 0.526275760000004
-0.749609 -0.35599883 0.530899169999998
-0.42793656 0.1882755 0.560989509999985
-0.42874623 0.19127004 0.560974249999987
-0.39472819 0.18546407 0.560638549999993
-0.37915231 0.18107716 0.55697644
-0.0341043599999999 -0.227974730000001 0.52624523999998
-0.0309362500000001 -0.236636 0.525421269999981
-0.0250320500000001 -0.23529037 0.517807129999994
0.0296649899999999 -0.231097060000001 0.520034920000001
0.0706768 -0.236414750000001 0.510696539999998
-0.73077775 -0.35527499 0.512878540000003
0.00984381999999995 -0.24324783 0.528259399999996
0.05079459 0.0718204199999999 0.532364019999989
0.12841415 0.10207097 0.551986819999996
0.17118167 0.30724637 0.550888189999995
0.17178439 0.328276789999999 0.552185179999981
-0.73294783 -0.33858379 0.512436039999983
0.03816318 0.07674424 0.534530770000003
0.05667972 0.06921307 0.530624520000003
0.06762599 -0.231692150000001 0.510742309999983
0.10868167 0.0902320599999999 0.54783642999999
0.1237688 0.0917102499999993 0.53109753999999
0.14001369 0.10970418 0.531189089999998
0.15073585 0.108071489999999 0.548843509999983
0.38900947 -0.0402086600000002 0.532653929999981
0.41042136 -0.0417202300000001 0.539978149999996
0.55794715 0.36136166 0.555496339999991
0.57190036 0.361428419999999 0.56088269
-0.60601426 -0.44547733 0.511383179999996
-0.36915685 0.18016354 0.552871829999987
-0.18796254 0.116724169999999 0.53146375
0.0373754399999999 -0.212313490000001 0.512786989999995
0.0529746899999999 -0.22330554 0.511734129999979
0.10885715 0.0831290899999999 0.530410889999985
0.15712737 0.307330289999999 0.552185179999981
0.54337596 0.32586972 0.551757939999987
0.55094337 0.34292142 0.55130016999999
-0.60799886 -0.44077762 0.505096559999998
-0.19156075 0.11322896 0.545852789999998
-0.16789342 0.12782208 0.530075199999999
-0.0732278900000001 -0.53040202 0.49020397999999
0.03907108 -0.23177798 0.512924319999996
0.11921882 0.0843288099999997 0.531906249999992
0.15997314 0.2812206 0.550644049999988
0.31131076 0.687724269999999 0.576965459999997
0.38572406 -0.0334595000000002 0.511428959999989
0.39097118 -0.0310324 0.51593029999998
-0.72990657 -0.35142024 0.51593029999998
-0.43780804 0.20094601 0.552566649999989
-0.1701994 0.108559769999999 0.531128059999986
-0.07034589 -0.52766689 0.490402349999982
0.31259441 0.70865552 0.571106079999993
-0.33301879 0.17416303 0.536102419999992
-0.0713920700000001 -0.530450660000001 0.488968019999987
-0.07275773 -0.52800449 0.488937499999992
-0.0277090200000001 -0.22138198 0.512115599999987
-0.0201759400000001 -0.235632740000001 0.49838269
-0.00820924000000001 -0.23729213 0.502273689999981
0.02954005 -0.23517497 0.491287360000001
0.0468616399999999 -0.23823245 0.490631229999991
0.0502309699999999 -0.23364337 0.490097169999984
0.07691096 -0.24870952 0.507934699999993
0.54295634 0.341408889999999 0.550933959999981
-0.7228675 -0.35191234 0.502258429999983
-0.71250773 -0.33946975 0.504684569999995
-0.44952346 0.20680158 0.535598879999981
-0.33253861 0.169463319999999 0.539734009999989
-0.32367135 0.169443289999999 0.532959109999979
-0.16944886 0.10873906 0.532455569999996
-0.0312242600000001 -0.21166976 0.492324959999991
-0.0267048000000001 -0.21027072 0.501754890000001
0.08842181 0.0721418099999998 0.530334600000003
0.15530395 0.30827252 0.542144899999982
0.17219924 0.296584289999999 0.535476810000006
0.53077411 0.32969586 0.535293709999991
0.53418636 0.333672679999999 0.535293709999991
0.55478763 0.34673421 0.546234260000006
-0.0698309000000001 -0.50016673 0.479843270000003
0.08814429 0.0740672799999995 0.51091015999998
0.0967206899999999 0.0754367499999997 0.510330329999988
0.1106758 0.0866519599999993 0.51385510999998
0.11653041 0.0918742799999999 0.510345580000006
0.1310768 0.109171069999999 0.516082890000007
0.1535015 0.27899854 0.530471930000004
-0.1825533 0.11881463 0.512298709999982
-0.17008687 0.10551659 0.528350959999983
-0.15156365 0.109299819999999 0.512085089999999
-0.16209889 0.12983529 0.512374999999992
0.52958106 0.32550732 0.531952029999985
0.66257857 0.3906223 0.546463139999986
-0.69894696 -0.33232482 0.495575079999981
-0.44822217 0.21015469 0.544357429999991
-0.3071642 0.16105763 0.531753670000001
0.0751771800000001 0.0673457800000001 0.516983159999995
0.37700175 -0.0149124400000007 0.511459479999985
0.65564441 0.38948743 0.539093140000006
-0.31112576 0.16578976 0.52336133
-0.29980565 0.16403596 0.519256719999987
0.20613574 0.30407636 0.530700809999985
0.37104129 -0.0119598700000001 0.491333129999987
0.38064765 -0.0301998399999999 0.504089480000005
0.39261913 -0.0290630600000004 0.504760869999984
0.1558876 0.288172879999999 0.511383179999996
0.15014838 0.29921262 0.512542849999988
0.36890887 -0.0101393000000005 0.491500979999984
0.55190181 0.35151402 0.542465340000007
-0.68670274 -0.33308871 0.491653569999983
-0.28180123 0.15838162 0.510849119999989
-0.05823136 -0.47293742 0.471511969999995
-0.02581788 -0.211193880000001 0.471771369999999
-0.0102625000000001 -0.23034747 0.488906990000004
0.000641810000000076 -0.230351290000001 0.471801879999987
0.0233402199999999 -0.23026355 0.470214970000001
0.0310230199999999 -0.23348697 0.472137579999981
0.0536155599999999 -0.2351044 0.487014899999991
0.0506372399999999 -0.22444137 0.489624149999997
0.14110183 0.28112523 0.51268017999999
0.17184543 0.291371509999999 0.526580940000002
0.51158809 0.31626622 0.519394049999988
0.5303297 0.335942429999999 0.52661144999999
0.55193614 0.35262219 0.52630628
-0.69113732 -0.335343200000001 0.489349489999995
-0.68336821 -0.33813651 0.487014899999991
-0.46905232 -0.20681079 0.491287360000001
-0.27699281 0.14753262 0.51091015999998
-0.0564270099999999 -0.460970720000001 0.469207890000007
-0.0318670400000001 -0.210560640000001 0.48143017999999
-0.00823974999999999 -0.22676356 0.470703249999985
0.0531415900000001 0.07008378 0.490921149999991
0.0882243999999999 0.0721313199999996 0.49240125
0.10186099 0.0890590399999995 0.490310789999995
0.11090564 0.0896808299999998 0.505554329999995
0.11526584 0.10884015 0.490905889999993
0.13123893 0.10404412 0.506302009999985
-0.67305756 -0.32232745 0.47744763999998
-0.26364709 0.145370639999999 0.510131959999995
-0.18376351 0.12534539 0.507171760000006
-0.17057324 0.109412349999999 0.490097169999984
-0.15220738 0.109118619999999 0.492279179999997
-0.03286458 -0.20039828 0.481155519999987
0.03713893 -0.212291560000001 0.470687989999988
0.05441856 0.0699779199999995 0.493499880000002
0.50628184 0.31295697 0.514053469999993
-0.59232713 -0.390398820000001 0.473388799999981
-0.46745015 -0.19934543 0.475418219999995
-0.25210286 0.14238088 0.500610480000006
0.50274944 0.30878751 0.514083989999989
-0.66161013 -0.32301601 0.470321780000006
-0.23080254 0.14326302 0.49476636
-0.14736749 0.104844249999999 0.508895999999993
0.20510768 0.10378854 0.490020880000003
0.36099147 -0.0107105600000006 0.471710329999979
0.37031364 -0.0123070100000007 0.488830689999986
-0.21942235 0.13607709 0.490677009999985
-0.19587041 0.12197797 0.491638309999985
-0.14960481 0.12222211 0.491470459999988
0.13245963 0.274262589999999 0.492752199999984
0.15076923 0.28366391 0.49890148999998
0.49013995 0.30385129 0.498275879999994
-0.21192838 0.12728612 0.492004519999995
-0.04359914 -0.41170581 0.453827029999985
0.02928924 -0.22904285 0.470230229999999
0.48017596 0.2971832 0.492935310000007
-0.0350113000000001 -0.21172794 0.469009529999994
-0.0302410200000001 -0.19658359 0.466034059999998
-0.01520158 -0.21837028 0.452407959999988
0.00261211000000006 -0.225272970000001 0.450164919999992
0.02070712 -0.22890933 0.450271729999997
0.0247907599999999 -0.23019775 0.452804689999994
0.03164481 -0.21169074 0.451477179999983
0.0527143399999999 0.0703899099999994 0.471313600000002
0.08712005 0.0746518799999993 0.47877514999999
0.0999326599999999 0.0883475999999996 0.477005129999981
0.11049461 0.10692708 0.480697759999998
0.14018916 0.2687637 0.490081909999986
0.3399372 0.00803867999999941 0.470275999999984
-0.17013264 0.10953252 0.48333753
-0.15111829 0.10352246 0.483810549999987
-0.14439679 0.10598866 0.471710329999979
-0.13877774 0.12622372 0.470474370000005
-0.04952622 -0.40194209 0.452057010000004
-0.01915646 -0.2097338 0.451904420000005
0.10904597 0.10934083 0.475280889999993
0.34788989 -0.0132759400000007 0.470810059999991
-0.4510069 -0.192046 0.46018995
-0.19254876 0.12662713 0.485214359999986
-0.17096139 0.117112319999999 0.479095580000006
-0.04824735 -0.391380150000001 0.442779669999993
-0.03862286 -0.38964732 0.450622679999981
0.0582761700000001 0.0677310599999998 0.471862920000007
0.1187601 0.2501785 0.490265019999981
0.47276782 0.28941647 0.491180549999996
-0.63129474 -0.30940326 0.453399779999984
-0.62777425 -0.296703180000001 0.454696780000006
-0.60759354 -0.30074104 0.452621590000007
-0.1615286 0.11110417 0.470123419999993
0.11901378 0.2530338 0.47155773999998
0.13221358 0.26046292 0.470016609999988
0.13200854 0.28290479 0.47184765999998
0.15078162 0.275412719999999 0.481659059999998
0.34427165 0.00631730000000008 0.459961059999983
0.34048461 -0.0115345300000005 0.453033570000002
0.35259437 -0.0116604200000001 0.462280399999997
0.4602375 0.289397399999999 0.47103894
0.47611713 0.289025469999999 0.480911379999981
0.47000693 0.29301755 0.479538090000005
0.49309825 0.0181752899999994 0.461425910000003
-0.60406495 -0.28906902 0.461471679999988
-0.58137227 -0.30772765 0.451629760000003
-0.0419931499999999 -0.37205203 0.435669069999989
0.0483407899999999 0.0661307999999998 0.47161878
-0.45148898 -0.1894482 0.451461919999986
-0.01704694 -0.217201070000001 0.447281009999983
0.00352382000000007 -0.22258552 0.430847290000003
0.02152347 -0.2193888 0.43020641999999
0.0305194799999999 -0.2121218 0.445968749999992
0.0482778500000001 0.0693351399999997 0.468582279999993
0.0515479999999999 0.07058637 0.46867383
0.0611190699999999 0.0653850299999998 0.45010388999998
0.0854301399999999 0.0768329300000001 0.451858649999991
0.0960636100000001 0.089842 0.450393800000001
0.0969963 0.0931665099999996 0.450164919999992
0.11030959 0.10116212 0.459350709999995
-0.58862019 -0.30011447 0.446518069999996
-0.58507348 -0.27424319 0.450012329999993
-0.57154799 -0.26541408 0.451782350000002
-0.55433274 -0.25496753 0.450164919999992
-0.15108777 0.109078569999999 0.460022100000003
-0.1479435 0.108559769999999 0.451461919999986
-0.14862824 0.11475865 0.451202519999981
-0.03629685 -0.35013564 0.431518679999982
-0.02068139 -0.20882114 0.441787849999997
0.0342788599999999 0.0783759799999997 0.450088629999982
-0.55620194 -0.255706630000001 0.447143679999982
-0.54510594 -0.252789340000001 0.448730589999997
-0.15044213 0.11013524 0.456146369999999
-0.0566244200000001 -0.40539821 0.432449469999995
-0.04734708 -0.4100941 0.431488159999986
0.1231985 0.24996106 0.473419320000005
-0.52479935 -0.229870640000001 0.442230349999988
-0.49406768 -0.211676440000001 0.435455450000006
-0.4718423 -0.19740565 0.433883789999982
-0.45966149 -0.188280900000001 0.433914310000006
-0.0277271400000001 -0.34640582 0.43161022999999
-0.52900792 -0.23276599 0.442215089999991
-0.48614312 -0.211939650000001 0.441177490000001
-0.46075297 -0.1932915 0.431579720000002
-0.44873668 -0.17851718 0.434036379999981
-0.12942601 0.12344663 0.450012329999993
-0.0313148599999999 -0.33148463 0.424575930000003
-0.0229435 -0.33004459 0.424911619999989
0.11267661 0.26169698 0.452819949999991
0.13044738 0.26546399 0.456771979999985
-0.12490559 0.10928647 0.450027589999991
0.0312938599999999 -0.19060214 0.431030399999997
0.0736579799999999 0.0665504199999996 0.453292970000007
-0.42314769 -0.17155917 0.434158449999984
